12.5 12.5 8.19945 8.00554 8.19945 8.13712 12.5 12.5 7.98615 7.98615 7.98061 8.00554 8.19945 8.06371 8.02493 8.02909 8.1108 8.09557 8.0928 8.08864 12.5 12.5 8.22022 7.98615 8.19668 7.98615 8.02493 8.02493 8.00554 7.98615 7.96676 8.241 7.98892 8.00554 8.00554 8.23269 8.16621 8.02493 8.02493 8.02493 7.98615 8.09834 8.17867 8.00554 8.03463 8.09141 8.00554 12.5 12.5 7.96676 8.19945 7.98615 8.06233 7.90859 8.12327 8.0651 8.22022 12.5 12.5 8.01662 8.10942 8.19945 7.8795 8.02493 7.92798 8.00554 12.5 12.5 8.14543 8.17867 12.5 8.19945 8.15374 8.13712 8.0651 7.98615 8.02493 8.19945 8.00554 8.14958 8.19945 12.5 12.5 12.5 8.16897 8.10526 8.22022 8.05402 8.19945 7.98615 7.96676 8.17867 8.02493 8.22022 12.5 12.5 12.5 12.5 12.5 12.5 12.5 12.5 12.5 12.5 12.5 12.5 12.5 12.5 12.5 
12.5 12.5 12.5 7.99861 12.5 8.00554 8.19529 7.96676 8.18006 8.23407 7.98615 8.19945 8.03324 7.98615 7.96676 7.98615 8.20637 8.11773 8.22022 8.07756 8.22022 8.17867 8.02493 8.02493 8.02493 8.19529 8.00277 8.01385 8.00554 8.19945 8.00693 8.241 8.09695 8.18144 8.19945 8.12465 8.05817 8.12465 8.08864 8.17867 7.98615 8.04986 8.00554 8.02493 8.241 8.06233 8.1482 8.00138 8.241 8.11634 8.08587 8.19945 12.5 12.5 8.19114 7.98615 8.04848 8.02493 7.98199 8.00554 8.03878 8.241 8.1579 8.11634 8.00554 7.90859 8.05679 8.1579 8.02493 7.98615 8.10942 8.241 8.15928 8.02216 8.06648 8.241 8.13712 8.10526 8.19391 7.98615 8.02493 8.241 8.00554 8.19945 8.241 7.95568 8.00554 8.13712 8.13712 8.00554 7.98615 8.09141 8.00554 8.02493 8.21884 12.5 8.19529 12.5 12.5 8.22022 12.5 12.5 8.22022 12.5 8.07064 12.5 8.19945 12.5 12.5 
12.5 12.5 8.07895 12.5 12.5 12.5 12.5 7.98615 8.16343 7.98615 8.14543 8.17867 8.02493 8.14266 8.22022 8.00554 7.99446 8.12327 8.241 8.1482 8.22992 8.09557 7.98615 8.01939 8.16897 8.03047 12.5 12.5 8.06094 8.00554 8.22022 7.96676 8.00554 8.00554 7.98615 7.98615 8.10388 8.16482 8.09834 8.16897 8.01939 12.5 7.98615 7.94737 8.18975 8.19945 12.5 8.19945 8.241 8.02493 7.98615 8.00554 8.02493 7.96676 8.06925 7.98615 8.09557 7.96676 8.0097 8.07756 7.96676 8.00693 8.09972 8.17867 7.92798 7.94737 8.19945 7.92798 8.01801 8.11634 8.05402 7.98615 8.22022 8.22715 8.00554 8.16621 8.02493 8.17451 7.98615 8.19945 8.02493 8.02493 8.09972 8.1856 7.98615 8.14958 8.241 8.05402 8.00554 8.00554 7.86981 8.22022 7.98615 8.19945 8.19945 12.5 12.5 12.5 12.5 12.5 12.5 12.5 12.5 12.5 8.1579 7.99446 8.22022 12.5 12.5 
12.5 12.5 12.5 12.5 12.5 8.07064 8.06233 8.16205 8.18006 8.09557 8.00554 8.22022 8.09418 8.22022 7.96676 7.98615 8.02493 8.00554 8.18421 8.02493 8.2036 12.5 12.5 12.5 12.5 8.19945 8.241 8.17175 12.5 12.5 12.5 12.5 8.08172 12.5 8.22022 12.5 12.5 12.5 12.5 12.5 12.5 12.5 12.5 12.5 12.5 12.5 12.5 12.5 12.5 12.5 12.5 12.5 12.5 12.5 12.5 12.5 12.5 12.5 12.5 12.5 12.5 12.5 12.5 12.5 12.5 12.5 12.5 12.5 12.5 12.5 12.5 12.5 12.5 12.5 12.5 12.5 12.5 12.5 12.5 12.5 12.5 12.5 12.5 12.5 12.5 12.5 12.5 12.5 12.5 12.5 7.95429 12.5 12.5 12.5 12.5 12.5 12.5 12.5 12.5 12.5 12.5 12.5 12.5 12.5 12.5 12.5 12.5 12.5 12.5 
12.5 12.5 12.5 12.5 12.5 7.94737 12.5 12.5 12.5 12.5 12.5 12.5 12.5 12.5 12.5 12.5 12.5 12.5 12.5 12.5 12.5 12.5 12.5 12.5 8.13712 8.08864 8.05125 12.5 12.5 12.5 12.5 8.01524 12.5 12.5 12.5 12.5 12.5 12.5 12.5 12.5 12.5 12.5 12.5 12.5 12.5 12.5 12.5 12.5 12.5 12.5 12.5 12.5 12.5 12.5 12.5 12.5 12.5 12.5 12.5 12.5 12.5 12.5 12.5 12.5 12.5 12.5 12.5 12.5 12.5 12.5 12.5 12.5 12.5 12.5 12.5 12.5 12.5 12.5 12.5 12.5 12.5 12.5 12.5 12.5 12.5 12.5 12.5 12.5 12.5 12.5 12.5 12.5 8.241 12.5 12.5 12.5 12.5 12.5 12.5 8.19945 12.5 8.17867 12.5 12.5 12.5 12.5 12.5 12.5 12.5 
12.5 12.5 12.5 12.5 12.5 12.5 8.13712 12.5 12.5 12.5 12.5 12.5 12.5 12.5 12.5 12.5 12.5 12.5 12.5 12.5 12.5 12.5 8.19945 7.98615 8.00554 8.00554 8.00554 8.02493 8.12604 7.98892 7.98615 7.98615 8.00554 12.5 12.5 8.08726 8.00554 8.09003 8.08033 8.1759 12.5 12.5 12.5 12.5 12.5 12.5 12.5 12.5 12.5 12.5 12.5 12.5 8.00554 8.17175 12.5 12.5 12.5 7.98615 7.85042 8.00554 12.5 12.5 12.5 12.5 8.22022 8.07479 8.19945 7.97922 8.19945 7.98615 8.06233 8.1759 12.5 12.5 12.5 12.5 8.13019 8.22022 12.5 8.241 12.5 8.06233 12.5 12.5 7.98615 8.07895 8.19945 7.94737 12.5 12.5 12.5 12.5 8.17175 8.17867 8.19945 12.5 8.0554 12.5 12.5 12.5 8.00554 8.0097 8.241 12.5 12.5 12.5 12.5 12.5 12.5 
12.5 12.5 12.5 12.5 12.5 8.241 8.00554 8.01662 12.5 7.98615 8.15651 8.01108 8.241 7.98615 12.5 12.5 8.241 8.22022 8.02493 7.98615 8.09557 7.98061 8.22022 7.98615 8.07064 8.05817 8.19945 8.02493 8.04709 8.22022 8.06094 8.00554 7.98615 12.5 8.1856 8.241 8.06371 7.98892 8.21607 7.98615 12.5 12.5 12.5 7.96676 12.5 12.5 12.5 8.22022 8.241 12.5 12.5 8.22022 8.02493 12.5 12.5 8.00554 8.00831 8.14543 8.19945 12.5 12.5 12.5 12.5 12.5 8.19945 8.19114 8.00554 8.05263 8.19529 8.03324 8.12604 12.5 12.5 12.5 12.5 8.07341 8.00554 12.5 8.241 12.5 8.06371 8.19945 12.5 7.98753 8.0277 8.02493 8.00554 12.5 12.5 12.5 12.5 8.00554 8.19945 8.06648 8.19945 7.99307 12.5 12.5 12.5 8.02493 8.02078 8.1579 8.22022 12.5 12.5 12.5 8.241 12.5 12.5 
12.5 12.5 12.5 8.15928 8.241 8.241 8.05402 7.98615 7.96676 12.5 7.96676 7.94737 8.03186 8.17867 7.96676 8.19529 8.12327 8.10111 8.1579 8.22022 8.06925 8.19945 8.00554 8.19945 8.0277 8.00416 12.5 8.1579 8.241 7.98615 8.13296 8.00554 7.98615 8.18006 8.19945 8.02493 7.90859 8.241 7.96676 8.07341 7.98615 8 7.96676 7.98615 8.19945 8.00554 8.15374 8.00554 8.02493 8.04571 8.16621 8.241 8.00554 8.241 8.241 8.00554 8.01524 8.06925 8.15374 8.02632 8.19945 8.00554 8.13989 12.5 8.22022 8.09418 8.15374 7.98615 8.08726 8.17036 8.06648 8.13435 8 8.241 8.04986 8.1579 7.98615 8.02355 7.96676 7.96676 8.00416 8.02493 7.94737 7.98615 7.98615 8.05679 7.95983 8.22022 8.07618 8.17867 8.22022 7.98615 8.02493 8.17867 8.17867 8.241 8.22022 7.92244 7.9903 8.00554 8.00554 8.00138 8.22022 12.5 8.04432 8.04986 8.22022 8.19945 12.5 
8.00554 7.99307 8.00554 8.14681 12.5 8.20776 7.98615 8.05125 8.05402 8.08033 7.92798 8.08587 7.98615 8.01662 8.241 8.04709 8.241 7.98615 7.98615 8.00554 8.13712 8.14681 8.11634 8.15097 8.14681 8.04155 7.98892 7.98615 8.15235 8.13712 8.19945 12.5 8.241 7.92798 8.22022 8.01939 7.96676 7.98892 8.19945 8.04432 8.17867 8.02493 8.13712 8.17729 7.96676 8.00554 8.15512 8.19945 8.19945 7.98615 7.98615 8.15235 8.1759 8.17867 8.17867 8.19391 8.00554 8.00554 8.1856 8.10942 8.04017 8.05125 8.22022 7.98615 8.03463 8.22022 7.98615 8.18975 8.02493 8.01801 8.17867 8.19945 7.94737 8.17451 7.90859 7.98615 8.22022 8.03324 8.22022 8.00831 8.24377 8.00831 8.12188 8.14543 8.00554 8.02493 8.00554 7.98615 8.22022 8.00554 8.03186 7.98892 7.98615 7.96676 8.10526 8.02493 8.09003 8.10665 8.241 7.92798 8.1579 8.21468 8.22022 8.19945 8.13158 8.241 7.98615 12.5 12.5 
8.12742 8.19668 7.96676 8.00554 8.19945 8.07618 8.05679 8.22299 8.10388 8.18006 8.05402 8.14543 8.08864 8.13712 8.22022 8.19945 12.5 8.22022 8.13712 7.98615 7.92798 8.19945 8.18975 7.92798 8.241 8.05402 8.19945 8.13712 8.1579 7.98199 12.5 8.22022 8.03047 8.241 8.11634 7.98615 7.92798 8.16621 7.92798 8.241 8.0097 8.01801 8.19945 7.98615 8.16897 8.14958 8.259 7.92798 8.241 12.5 8.241 8.22022 8.19945 8.01662 8.00831 7.98615 8.13158 8.22022 8.19945 8.1385 8.21053 8.10665 8.22576 8.19945 8.19945 8.12465 8.1482 7.98615 8.22022 8.06233 8.16205 8.241 8.22022 8.19529 7.98615 8.14127 7.98615 7.90859 8.02493 8.13712 8.14958 8.00554 7.90859 8.00554 8.00554 7.96676 8.22022 8.07341 8.20637 8.00416 7.98615 7.98615 7.99169 8.22022 8.07479 8.19945 8.08449 8.17867 8.21884 8.13019 7.96814 8.00554 8.241 8.19945 7.98615 8.06233 8.15374 7.98615 12.5 
8.19945 8.03463 8.04986 8.241 8.22022 7.90859 8.00554 8.01385 8.15097 8.00554 7.85042 8.11634 7.96537 7.8892 8.19945 8.08864 7.96676 7.98892 8.03186 7.94737 7.85042 8.241 7.97784 8.10249 7.97784 8.09418 8.05679 8.10526 7.98615 8.04294 8.02216 8.05402 8.14127 7.92798 8.07202 8.13712 7.92798 8.22022 7.92798 8.22022 8.00831 8.241 7.85042 8.22022 8.08449 8.22022 7.94737 7.98615 8.08033 12.5 8.00554 8.11634 7.98615 8.13712 8.00554 8.12327 8.19945 8.12881 8.05817 8.19114 8.05817 8.241 7.98615 8.09418 8.241 8.241 8.10111 8.00554 7.98615 8.19806 8.09972 8.0374 8.00554 8.19945 8.02493 7.98615 7.9723 7.99307 8.02493 7.95429 8.241 7.96676 8.05402 8.1108 8.01108 8.06648 7.98615 7.90859 7.96676 7.98615 7.98615 8.19945 8.00554 8.00554 8.1856 8.16897 8.18144 8.00554 8.02493 8.05263 7.97091 8.19945 8.02493 8.19945 8.09557 8.05679 8.19945 8.19945 12.5 
7.96814 8.02909 8.01247 8.03324 8.22022 7.97368 7.92798 8.06094 8.10803 8.00554 8.19945 7.96676 8.19668 8.15235 8.06787 7.98615 8.19945 8.241 8.09557 8.17451 7.98615 8.00277 7.96676 7.98615 8.02493 8.08726 8.13158 7.96676 8.00554 8.17867 8.01801 7.98615 12.5 8.02493 7.94737 8.22022 7.92798 8.22022 8.13712 8.02493 7.98615 8.00554 8.00554 12.5 8.17036 7.94737 8.16482 12.5 8.19945 8.0374 12.5 12.5 8.17867 7.96676 8.09003 8.00554 7.86288 8.15651 7.83103 8.08587 8.08726 8.05125 8.241 8.15512 7.98615 8.13712 8.04432 8.02355 8.0097 8.05125 8.17867 8.00554 8.00554 8.19945 8.14543 7.98615 7.96676 7.98615 7.98615 7.98615 7.98615 8.00554 8.03601 8.16897 7.96676 8.13712 8.22022 8.05956 7.90859 8.15651 8.13712 7.94737 8.19114 7.96676 8.19945 8.19945 8.02632 8.11773 8.17867 8.06233 7.96676 7.99169 8.22022 8.19945 8.19945 8.19945 8.00554 8.1579 12.5 
8.03463 8.19945 7.92798 7.98615 8.11496 8.17729 7.96676 8.10111 7.98615 8.10665 8.19945 7.98615 7.98615 8.22022 7.96814 8.12327 7.99584 8.19945 8.04432 7.98615 8.02493 8.17867 8.22022 7.98615 8.241 8.23823 8.19945 8.02493 8.00554 8.13989 8.06371 8.04986 7.98615 8.02493 7.98615 7.98615 12.5 12.5 8.17175 8.22022 7.99446 8.04432 8.16205 8.00554 8.17867 7.98615 8.07064 8.19945 8.19945 8.241 8.22022 8.17867 8.05679 8.19945 8.2133 8.14958 7.98615 8.06094 8.19945 8.241 7.9903 8.01801 8.1579 8.14404 8.1579 8.13158 8.17867 7.91967 8.00831 8.00693 8.04986 7.98615 7.98615 8.241 7.96676 7.98615 7.98615 8.07618 7.98615 8.00554 8.0831 8.02493 8.17175 8.00554 8.07479 7.98615 8.19945 8.1579 7.98615 7.98615 7.92798 8.1856 7.96676 8.11634 7.96676 8.02493 7.94737 7.96676 8.02493 7.98615 8.22022 8.19945 12.5 8.241 8.22022 8.19945 8.22022 12.5 12.5 
8.06787 8.22022 8.19945 8.19945 8.241 7.98615 8.04986 7.96676 8.19945 8.241 8.02493 8.19945 8.04571 8.19945 8.23407 8.241 8.22022 7.96676 8.00554 8.00554 8.04155 8.02493 8.22022 8.05402 8.06094 8.16482 8.17867 8.22022 8.22022 8.241 8.07202 8.11634 7.98615 7.98615 7.9903 8.02493 8.22022 8.00554 7.98615 8.19529 8.13019 8.12465 8.02493 8.241 7.96676 8.04848 8.02909 7.9903 8.00554 7.98615 8.00554 8.241 8.14958 8.02493 8.02493 8.07618 8.13712 8.02493 8.00554 8.00554 8.12742 8.19945 8.07064 8.22022 8.02632 7.92798 8.02493 8.19945 7.98615 8.14681 8.11634 8.11496 7.85042 8.22022 7.98892 7.94737 8.00554 7.92798 8.241 8.10942 7.98615 8.00554 8.01662 8.03463 8.241 8.22022 8.19945 8.00554 8.03601 8.19945 8.02493 8.05817 8.20637 7.96676 8.12604 8.19945 8.00554 8.13712 8.1482 8.241 8.11634 7.98615 8.02493 8.19945 8.22022 8.15374 8.05402 8.02493 12.5 
8.04155 8.22576 7.98615 8.19945 8.17451 7.98615 7.98615 8.02493 8.17729 8.02493 8.19945 7.98615 8.22022 7.94737 8.04986 8.17867 7.96676 8.19945 8.06648 8.241 7.92798 8.15512 8.12604 8.0097 7.98615 8 8.14958 8.02493 8.02493 7.90859 8.06925 7.98615 12.5 8.19945 8.05817 12.5 8.14958 8.23961 8.06925 8.14127 8.09834 8.241 8.10388 8.00554 8.00554 7.98615 7.98615 7.96676 7.98615 7.98615 8.22022 8.17867 12.5 12.5 8.00554 8.00554 8.02493 8.02493 8.22022 8.17175 8.22022 8.17867 8.0374 8.22022 8.02493 8.02632 8.10249 8.22022 8.15374 8.07756 8.01662 7.98615 7.94737 8.00554 7.92798 8.19391 7.98615 8.05956 7.98615 7.88366 8.00554 7.96676 8.10942 8.14543 8.17867 7.96676 8.19945 8.04432 7.98615 7.98615 7.98615 8.17867 8.00554 8.22022 7.98615 8.22022 7.98615 8.0277 8.06371 7.98615 8.1579 8.00554 8.1579 8.22022 8.14127 7.96676 8.02493 8.02909 8.1579 
8.02493 8.16621 8.14127 8.19945 8.07479 8.10803 8.06787 7.98615 8.1579 8.22022 7.98615 7.92798 8.15374 7.92798 7.98615 8.10942 7.8795 8.241 8.09003 8.00554 7.96676 8.19945 8.00554 7.96676 7.99446 8.11634 8.22022 7.92798 7.98615 8.15097 8.13712 8.22022 7.90859 8.22022 7.86981 8.13019 7.96399 8.22022 8.0831 7.98615 7.98615 8.10942 8.19945 7.95845 8.22022 7.98476 7.98615 7.92798 7.98753 7.96676 7.98615 7.98615 8.19945 8.0097 8.13435 8.22299 7.98615 8.00554 8.04155 7.96676 8.02493 8.2313 7.98615 8.22022 8.19945 7.98615 8.03463 8.16482 8.16621 8.02493 8.00554 8.10249 8.00693 7.98615 8.17313 8.13712 8.02493 7.94737 8.19252 8.09418 8.10803 8.00554 7.92798 8.13435 8.00554 7.85042 8.00554 7.94737 8.13296 8.04709 8.10111 8.12188 7.98615 7.96814 7.96676 8.15374 8.00554 8.06925 8.18006 7.98615 8.1579 7.98615 7.99169 8.19945 12.5 7.97922 8.19945 8 7.97922 
8.00554 8.12465 8.0277 8.17451 8.19945 7.92936 7.94737 8.19945 8.05402 8.241 7.8892 8.17867 8.01108 7.89612 8.22022 7.92798 7.96676 7.98615 7.99446 8.03463 7.8518 8.241 8.11634 8.03878 7.92798 8.1579 8.05402 7.92798 8.00554 8.05402 8.22022 8.1579 7.99169 7.94875 8.01108 8.22022 12.5 12.5 7.8892 8.00554 7.85042 8.00554 12.5 7.98615 7.92798 12.5 7.93767 8.1579 7.98615 7.92798 8.00554 7.90859 8.0651 7.92798 12.5 8.1579 12.5 8.17867 8.02355 8.04432 7.97507 8.241 7.98615 7.96676 12.5 8.19945 12.5 12.5 8.08172 8.05263 8.23823 8.16621 8.02078 8.18283 8.22022 7.98615 8.19945 8.19945 7.98615 8.22022 8.03463 8.19945 7.98615 8.02493 8.18421 8.19945 8.01939 7.90859 8.01247 7.98615 7.98615 8.19806 7.96676 8.08587 8.19945 8.241 8.19945 8.1482 8.01524 8.01247 8.22022 8.19945 8.241 12.5 8.22022 8.19945 8.04017 7.98892 8.11634 
7.92798 8.08172 8.00554 8.13712 7.98615 8.01662 7.92798 8.19945 8.05402 12.5 7.98615 8.09141 8.02493 8.19945 8.17313 8.0831 8.13712 8.21191 8.01108 8.23684 8.1482 7.98615 8.241 8.13712 8.01662 7.97645 8.0277 7.98615 7.98615 8.00693 12.5 8.02909 12.5 12.5 8.13712 8.02493 12.5 12.5 8.15928 8.17867 7.98615 8.19945 8.00554 12.5 8.02493 7.99446 8.19945 8.13712 8.11773 7.94737 8.02493 8.17867 7.94737 8.16621 8.13712 7.96953 12.5 8.17175 8.05402 8.06787 8.03463 8.01524 8.15928 8.11634 12.5 8.17867 12.5 12.5 12.5 12.5 8.17867 8.04986 8.00416 8.11219 8.02493 8.00138 8.17867 8.00554 8.07618 8.241 8.02493 8.17867 8.00554 8.22022 8.19945 8.07618 8.10942 7.98615 8.00416 8.02493 8.02216 8.1579 8.02078 8.11634 8.13712 8.02493 7.98615 7.90859 8.19945 8.02493 7.92798 7.98615 8.241 12.5 8.00554 8.19945 8.10249 8.19945 7.98615 
8.09003 8.19945 8.07064 7.98615 8.20914 8.00554 7.98615 7.98615 8.22022 12.5 12.5 8.06094 8.0651 8.19945 8.03463 7.98615 7.98615 8.0374 7.98615 7.98753 7.98615 8.11496 8.22022 8.19945 8.1385 8.19945 8.07895 8.22022 8.00416 8.15928 8.11496 8.16343 12.5 8.00554 8.02493 8.19945 8.22022 7.98753 8.02493 8.09695 8.17867 8.22022 8.19945 8.19945 8.1108 8.0554 8.05956 12.5 8.19945 8.19945 8.241 8.02078 8.19945 8.22022 8.02632 7.98615 12.5 12.5 8.19114 8.241 8.00554 8.00554 8.13712 8.20083 12.5 8.1108 12.5 7.85042 8.19945 8.02355 8.00554 8.19945 7.94737 7.98615 7.94737 8 7.96676 7.96676 8.22022 8.22022 8.0374 8.02216 8.03047 8.17867 8.13989 8.23269 8.00416 7.96676 8.17451 8.19945 8.22022 8.15928 8.00277 8.17867 7.98615 8.05817 7.94737 8.1579 8.19945 7.92798 8.11634 8.05263 8.19945 7.94737 8.12327 7.98615 8.02493 8.00554 8.22022 
8.01108 8.10942 8.08726 8.241 8.04432 7.98615 8.20222 8.241 7.98615 12.5 8.241 8.0831 7.98615 8.00554 8.13296 8.21191 8.22022 8.241 8.241 8.08033 8.08864 8.02493 8.22022 8.00554 8.19945 8.19668 8.11773 8.02493 8.02493 8.02493 8.07756 8.19668 8.00554 7.96676 8.22022 8.00554 8.00554 7.96676 8.19945 8.09003 8.20083 8.241 8.02493 8.19391 7.96676 8.241 8.00554 8.10111 8.11357 8.19945 8.02493 8.10249 8.26177 8.04986 8.12327 8.11634 8.17867 8.07479 8.12742 8.18837 7.99169 7.96676 8.11773 7.99584 8.05263 7.92798 8.12604 8.00416 8.07341 8.04155 8.13712 8.19945 8.12881 8.00554 8.04017 7.97507 8.02493 7.9723 8.09141 7.98615 8.13989 7.98615 8.04432 8.13435 8.19945 8.07756 8.05263 8.12188 8.241 8.15235 8.0928 8.241 8.17867 8.22022 8.1482 8.14543 8.06787 8.06925 7.98615 8.00554 8.13712 8.10665 8.00554 8.19945 7.98615 8.11357 8.04294 12.5 12.5 
8.22022 8.0097 8.19945 8.08172 8.05402 8.01247 7.98615 8.19945 7.96676 8.02493 7.96676 8.03463 7.98615 8.00554 8.241 8.10526 8.04709 7.99307 8.19945 8.241 7.92798 8.241 8.22022 7.99446 8.19945 8.09695 8.1482 7.94737 8.18006 8.06094 8.22992 7.98615 8.03463 7.96676 8.17175 7.98615 8.00554 8.19391 8.241 8.00554 8.0554 8.00554 8.241 8.07341 8.1759 8.15651 8.18006 8.00554 8.19945 8.22022 8.17867 8.02493 7.96676 7.98615 8.20499 8.09972 8.241 8.03601 8.01108 8.17867 8.00554 8.19945 8.1759 7.98615 8.00554 8.19945 7.98615 8.22022 8.00554 8.07064 8.10388 8.13989 8.17867 8.02493 7.96676 8.03324 7.98615 8.1579 8.18421 7.93767 8.241 8.17867 7.92798 8.14958 8.13712 8.22022 8.03324 8.11634 8.00554 8.19945 8.1579 8.01662 8.19945 8.02493 8.19945 8.01801 8.19945 8.18283 8.20776 7.98615 8.07064 8.22022 7.98615 8.13296 8.04709 8.04571 8.22022 12.5 8.13712 
7.98615 8.04432 7.96676 8.19945 8.14543 8.00554 8.10665 7.98615 7.9626 7.98615 7.98615 8.07202 7.98615 7.94737 8.19945 7.98615 12.5 8.04709 7.8892 8.02493 8.01108 8.07202 8.11357 8.04155 7.98615 7.93629 8.02909 8.0277 8.00554 8.1482 8.19945 8.04432 7.92798 8.19945 8.12881 8.06925 7.93767 8.01939 7.98615 12.5 12.5 7.98615 8.00138 8.16897 8.22022 7.92798 8.23269 8.1579 8.02493 7.98615 8.01247 7.96676 7.98615 8.19945 8.19945 8.23684 8.16897 8.00554 8.22022 8.19945 8.02493 8.02078 8.19945 8.00554 7.96676 8.19945 7.96676 8.241 8.241 8.22022 8.22022 7.98615 8.00554 8.00554 8.05679 8.20776 8.22022 8.241 7.98615 8.11911 8.02493 8.02909 7.94737 8.19945 8.19252 7.90859 8.21745 8.11634 7.92798 8.0277 8.13712 7.98615 8.00554 7.94737 8.10665 8.02493 8.08033 7.98615 8.18975 8.00554 8.07341 8.02493 8.01662 8.16066 8.22022 8.00554 8.14958 12.5 12.5 
7.99861 8.22299 7.85042 8.19945 8.05125 8.13712 7.90859 8.03463 7.85042 8.23546 7.90859 8.13435 8.00416 8.11634 8.19945 12.5 8.22022 8.18144 7.92798 8.17729 8.11634 8.22022 7.94875 8.1579 8.00554 8.1579 8.22022 7.85042 8.03601 7.85873 8.19945 7.90859 8.19391 7.93213 8.13712 8.11357 8.13712 8.22022 7.85042 8.241 7.8615 8.20222 8.07479 7.96676 7.93767 8.1579 8.1579 8.13712 8.22022 7.98338 8.22022 7.83518 8.00554 8.15512 8.0097 8.19945 8.07479 7.96676 7.98615 8.18006 7.92798 8.08726 8.03878 12.5 8.03601 8.13435 8.22022 7.98615 8.01385 8.2313 7.98615 7.98615 8.00554 7.96676 8.02493 8.00554 8.02493 8.02493 8.0928 8.08726 8.07202 8.15651 8.02493 8.01801 8.00554 7.96676 8.03601 8.13712 8.05125 8.08587 8.08033 8.11911 8.22022 7.85042 7.98615 8.241 7.92798 7.98615 8.22022 8.19945 7.94737 8.22022 8.19945 7.99169 8.00554 8.2133 12.5 12.5 12.5 
8.13712 8.241 8.19806 7.98615 7.98615 8.17867 7.99861 8.241 7.98615 8.17867 7.98615 7.96676 8.14543 8.00693 8.19945 8.06925 12.5 8.23823 7.96676 7.98615 8.17867 8.16759 7.98615 7.96676 8.00554 12.5 12.5 8.19945 8.17867 8.19945 8.09834 8.21191 12.5 12.5 7.92798 8.22022 8.05679 8.02493 8.14404 7.98615 7.99584 8.19945 8.16897 8.11357 8.22022 12.5 8.19252 8.01939 8.22022 7.93767 8.00554 7.98615 7.99307 8.22022 8.01801 8.00554 7.83103 8.19945 7.96676 8.22022 8.1579 8.11773 8.05263 8.07479 8.21884 8.03047 8.22022 8.15512 8.19945 8.00554 8.1205 8.10526 8.00554 8.19945 8.19945 8.22022 8.14404 8.03047 8.22022 7.99169 8.20776 8.17867 8.00554 8.00554 8.05402 8.00554 7.98615 8.241 8.04155 7.98615 8.11634 7.99723 8.0097 8.00554 7.98892 8.241 8.18975 8.13712 8.00554 7.96676 8.09557 7.94737 8.18283 8.22022 7.94737 8.01662 8.22022 8.241 8.19945 
8.13435 8.06094 8.19945 7.98615 8.03878 8.09972 8.19114 7.98615 12.5 12.5 8.00554 8.04432 7.98615 8.00554 8.07202 7.98615 8.02493 8.22022 8.00554 8.19945 8.10249 8.19945 7.98615 8.02493 8.22022 8.02493 8.00554 8.05402 8.00554 8.22022 8.04709 8.22022 7.98615 8.20499 8.13019 8.19806 12.5 12.5 8.02493 8.22022 12.5 8.13019 8.02632 7.99861 8.1856 7.98615 8.02355 8.22022 8.02493 7.98753 8.02493 7.94737 8.18698 8.13158 8.19945 7.96676 7.98615 8.19806 7.92798 7.98615 8.11634 8.11911 8.09834 8.06094 8.00554 8.09141 8.02909 8.05402 8.22022 7.92936 7.96814 8.22022 8.11634 8.06371 7.94875 8.06925 8.241 7.98615 8.19945 8.13158 7.98615 8.02078 8.22022 8.03047 8.22022 8.0651 7.98615 8.15374 8.22022 8.19529 8.241 8.00554 8.02493 8.00554 8.00554 7.98615 7.98615 8.12188 8.23269 8.0374 7.94737 8.07479 8.1856 8.12465 8.05402 7.94737 7.98615 8.17867 7.85042 
7.98615 8.07479 8.241 8.11911 8.03463 12.5 8.01247 8.17867 8.20637 8.18006 8.13989 8.19945 8.17867 8.02493 8.02493 8.00554 8.00554 8.05817 8.00554 12.5 12.5 8.18975 8.22022 8.00554 8.19945 8.01385 8.16621 7.98615 8.12465 8.02493 8.22022 8.22022 8.19945 7.98615 8.00554 7.96676 8.14681 8.00693 8.09557 8.11219 8.10665 8.241 7.98615 12.5 8.11219 8.00554 7.98615 8.18283 8.21884 8.241 8.19945 8.08449 8.00554 8.15097 12.5 12.5 12 8.06233 8.01108 7.98615 8.11496 8.13435 8.09003 7.99307 8.18837 8.11219 7.99584 7.98615 7.98615 8.19945 7.92798 8.00554 7.94737 8.00554 8.22022 8.13712 7.98615 8.09557 8.07618 8.17867 7.90859 8.20499 8.06925 8.19945 8.02493 8.00693 8.22022 8.04017 7.98615 8.06094 8.00554 8.19945 8.15928 8.13435 8.22022 8.19945 8.10526 8.01662 8.05817 8.22022 8.00554 8.241 7.96676 8.12465 8.01247 8.17175 8.06371 8.19252 8.19945 
8.19945 8.04571 7.99169 7.98615 8.19945 7.98615 7.98615 8.00831 8.01939 8.02493 7.96676 7.98615 8.26177 8.16205 8.02493 8.00554 8.19945 7.98615 8.09972 8.241 8.13712 8.19668 8.00554 7.98615 7.98615 8.22022 8.11634 8.19945 8.241 8.17867 8.00554 8.00831 8.07064 8.17867 8.04155 7.98615 8.20776 8.03878 8.10526 8.241 8.0554 8.00554 8.18283 8.19945 8.23961 8.2313 8.02493 8.00554 8.04017 8.18975 8.02493 8.10111 7.96676 8.01662 8.02493 8.18698 8.02493 8.20914 8.04986 8.09972 8.1482 8.06371 8.00554 8.08172 8.02493 8.00554 7.98615 7.96676 7.98615 8.00554 8.241 8.19945 8.241 8.241 8.00554 8.17867 7.98615 7.98615 8.00554 7.99723 8.13296 8.22022 7.92798 8.04155 7.98199 7.92798 8.22022 8.0097 8.22022 8.241 8.03047 8.18283 8.03601 7.96676 8.19945 8.241 8.22022 8.06371 8.02493 8.19945 8.02493 7.98615 8.19945 8.02493 7.98615 8.18837 8.241 8.02493 8.06094 
8.17867 8.02493 8.22022 8.19945 8.18144 8.241 12.5 12.5 7.97091 7.96953 8.00554 7.92798 8.19945 7.92798 7.98615 8.11357 7.92798 8.07479 7.92798 8.08033 8.14958 8.00138 8.05679 7.93352 8.19945 8.13712 8.00554 7.94737 8.00554 8.11219 7.98615 8.241 8.13712 7.98615 8.13712 8.18144 7.92798 8.241 8.10803 8.13296 8.08587 8.13989 8.22022 8.13435 8.23546 7.95291 8.02493 8.17867 12.5 8.22022 7.98615 7.99446 7.98892 7.98615 7.98615 8.02493 8.06094 8.00554 8.22022 7.98615 8.11496 8.09972 8.19945 8.00554 8.00554 8.22022 7.98615 8.04432 8.03047 8.00554 8.22022 7.98615 8.01108 8.0651 8.02493 8.04848 8.02355 8.22022 8.11911 7.98615 8.01108 8.19945 8.18837 7.98615 8.07618 7.95429 8.00554 7.98615 8.08726 8.12465 8.01939 8.09972 8.0831 7.94044 7.92798 8.00554 8.02493 7.90859 8.19945 8.10665 7.92798 8.19945 8.19945 8.19945 8.22022 8.22022 7.98615 8.02493 8.19945 
8.00554 7.98615 7.85042 8.00554 12.5 8.10111 7.96676 8.06094 8.0097 8.00554 7.90859 8.05263 8.13435 7.9446 8.22022 7.92798 7.96676 8.22022 12.5 8.00554 7.87535 8.13435 7.92798 8.07064 7.95845 8.04848 8.00554 7.85042 8.08449 7.98892 7.98615 7.92798 8.00554 7.92798 8.09695 7.98615 8.04571 8.07341 7.95429 7.98615 8.05402 8.19945 8.11634 8.05679 7.96676 8.11357 7.98615 8.13712 8.04432 7.92798 7.98615 7.90859 8.00554 7.90859 12.5 8.22022 12 8.03601 7.94737 8.02493 8.1579 8.1385 7.98615 8.06925 8.19945 8.19945 8.21053 8.17451 7.99169 8.08449 7.98615 8.09418 8.04432 8.00554 8.02493 8.03047 8.19945 8.09695 7.99861 8.00831 8.12327 8.241 8.19945 7.99723 8.03186 8.02493 8.1759 8.02493 8.05125 8.04709 7.94737 8.08449 7.96676 7.92798 8.22022 8.241 7.96676 7.92798 8.00554 8.17867 8.05402 7.99584 8.241 8.13712 7.98338 8.02078 8.09418 8.241 7.94737 
7.92798 8.07479 8.04571 8.04986 8.04571 8.14958 8.13573 8.17036 8.22022 7.98615 8.16897 8.04294 8.02493 8.07479 7.98615 8.19945 7.96676 12.5 8.13712 8.09834 7.98615 12.5 8.22022 7.92798 8.00554 8.09834 8.00554 7.98615 7.96676 7.96676 8.14958 8.00554 7.92798 7.98615 7.92798 7.99169 8.06233 8.241 8.19945 8.17451 8.17867 7.97645 8.02493 7.95014 8.19945 7.89612 7.98615 7.92798 8.07618 7.96676 7.96676 8.00554 7.92798 8.00554 12.5 8.241 8.05402 7.98615 7.92798 7.96676 8.22022 8.1205 7.98615 7.85042 8.00554 7.92798 8.241 7.96676 7.94737 8.00554 8.13712 7.98615 8.1579 8.00554 7.98615 7.96676 8.02493 7.96676 7.98615 7.98615 7.98615 8.17313 8.00554 7.98615 7.98615 8.20914 8.00554 8.23407 7.98615 8.02493 8.0277 8.21191 7.96676 8.15235 8.241 8.18421 8.00554 8.0928 8.03463 8.10665 7.98615 7.97507 8.241 8.19945 8.22022 7.92936 8.02493 8.0831 8.17867 
8.241 8.02493 8.22022 8.18144 8.10803 8.241 8.2313 8.10942 8.19391 8.17867 8.02355 7.98615 8.21607 8.00554 7.98615 7.9903 8.241 8.02493 8.02493 7.96676 7.98615 8.02493 8.02493 7.99446 8.19945 8.07064 7.98615 8.14404 8.07756 8.02493 8.00554 8.241 8.19668 7.98615 8.22022 7.98615 12.5 7.98615 8.17036 8.02493 7.98615 8.15235 8.00693 8.19945 7.98615 12.5 12.5 8.08033 8.02493 7.96676 8.02493 7.98338 8.10249 7.98615 7.96676 8.17867 7.98615 8.00554 7.92798 7.98615 7.94737 7.98615 7.99446 7.98615 8.22022 7.94737 7.98615 7.92798 8.02493 12 7.92798 8.00554 7.85042 8.00554 7.90859 7.98615 8.22022 7.92798 8.00554 7.94737 7.98615 8.00554 7.96953 8.00554 8.19945 7.96676 8.18975 8.09972 8.19945 8.19806 8.02493 7.98615 7.98615 8.17867 8.07756 8.06787 8.10388 8.02493 8.01524 8.241 8.02493 8.00554 12.5 8.241 8.00554 8.241 8.00554 8.11773 8.22022 
8.00554 12.5 8.241 8.00554 8.17867 8.241 8.00554 7.96676 8.02493 8.19945 8.241 8.04432 8.19529 8.00554 7.98615 8.22022 8.00554 8.17867 8.00277 8.19945 8.20776 8.241 8.00554 8.00554 8.17867 8.00554 8.00554 7.98615 8.02493 8.241 8.1205 7.9903 7.98615 8.00831 8.19945 8.17867 7.98615 8.19945 8.00554 8.22022 8.02493 8.02493 8.05402 12.5 8.19945 8.04986 12.5 8.19529 8.04155 8.241 8.07479 7.98892 8.241 8.19945 8.00554 8.08449 8.02493 8.00554 7.98615 8.19945 7.98615 8.02493 8.02493 8.07618 8.02493 8.00554 8.19945 7.98615 8.02493 8.04986 7.92798 8.241 7.98615 7.96676 7.98615 7.92798 7.98615 8.1579 7.98615 8.02632 7.90859 8.22022 7.90859 8.13712 7.94737 7.90582 8.02493 8.17867 8.13712 8.22022 8.17867 8.11773 7.98615 8.19945 7.98615 8.02493 7.98615 8.08449 8.19945 8.00554 8.00554 8.16343 8.02909 8.19945 8.02493 8.00554 8.22022 8.16621 8.1759 
8.22022 8.22022 8.00554 7.98615 8.02493 7.98615 8.18006 7.99584 7.96676 8.18144 8.02493 8.02493 8.22022 12.5 8.241 8.22022 8.18144 8.19945 8.19945 8.22022 8.17867 8.241 8.22022 8.19391 7.98615 7.96676 8.01939 8.02493 8.00554 8.17867 8.1856 8.08033 12.5 8.22022 8.241 7.99861 8.00554 7.98753 8.00554 8.22022 8.19945 8.19945 12.5 8.19945 8.22022 12.5 12.5 8.19945 7.98615 8.00554 7.98615 8.05402 8.05679 8.02493 8.0374 8.05125 8.19945 7.98615 8.02493 8.19945 12 8.02493 8.241 8.02493 8.02493 8.00554 7.96676 8.10803 8.0831 8.02493 8.02493 7.98615 12.5 12.5 12.5 7.98615 7.98615 8.19945 8.02493 8.00554 7.98615 7.98615 7.92798 8.21607 7.98615 7.94737 7.98615 8.08033 8.11496 8.22022 7.90859 7.96676 8.00554 7.85042 7.97507 8.22022 7.92798 8.1579 8.19945 8.22022 8.09834 8.19945 8.07479 8.19945 8.1579 7.98615 8.241 8.16066 8.21607 
7.98615 8.22022 12.5 8.13712 8.1108 7.9723 7.8892 8.00554 8.11634 8.05125 7.96676 7.92798 8.15928 7.91967 8.22022 8.07895 12.5 8.22022 8.11634 8.00554 7.94737 8.22022 8.19391 8.11773 7.98615 7.92798 8.09141 7.92798 8.00554 8.22022 7.98615 8.06787 7.92798 8.18421 7.9446 8.07202 7.97645 8.19945 8.19806 8.17867 7.96676 8.19945 8.02493 7.96676 8.22022 8.07202 8.12465 7.98615 7.98615 8.19945 7.98615 7.94183 8.22022 8.02493 8.09695 8.13573 8.17867 8.03047 8.00554 7.98615 7.98615 8.23961 8.00554 7.96676 8.00554 8.00554 8.22022 8.02493 8.22022 8.17867 8.00554 8.07618 8.02493 12.5 12.5 8.22161 7.98615 8.19945 8.02493 8.02493 8.00554 7.96676 8.02493 8.20637 8.19945 8.00554 8.19945 8.04432 8.19945 8.08726 8.17867 8.19945 8.02493 7.98615 7.94737 8.19806 8.09003 8.13712 8.19252 8.22022 8.1579 7.97091 8.17867 8.0097 7.92798 8.03324 7.94737 8.02493 8.19945 
8.00554 8.19945 8.13712 8.18006 8.07341 8.1579 8.17867 8.19945 8.1579 7.98615 8.07618 8.22022 7.98615 7.94737 8.241 8.13712 12.5 8.17867 8.1579 8.22022 8.07479 8.13435 7.92798 8.19945 7.98615 8.13712 8.241 8.11496 8.00554 7.85042 8.19945 7.92798 7.98615 8.11634 8.13712 7.96676 7.96399 7.96676 7.86981 8.17867 8.05402 8.04432 8.10942 8.23823 8.14958 7.94737 8.241 8.06233 8.2036 8.02355 7.98615 8.09557 8.07064 8.17867 8.06233 8.20222 7.97507 8.19945 8.05402 8.00554 7.96676 8.22022 8.19945 7.98615 8.22022 8.17867 8.02493 8.12327 8.19945 8.19945 7.98615 8.00554 8.241 12.5 12.5 8.19945 7.98615 8.18421 8.00554 8.20499 8.02493 8.06094 8.19945 7.98615 8.17175 8.0831 8.19945 8.13435 8.0554 7.96676 8.22022 8.241 8.19945 8.09003 8.04571 7.98615 7.98615 8.02493 8.04294 7.98615 7.98615 8.19945 8.23823 8.14127 8.00554 8.19945 7.98615 8.22022 7.98615 
8.00554 8.00554 8.02493 7.98615 8.22022 8.19945 12.5 8.22022 8.05402 12.5 12.5 8.19945 8.241 7.98615 7.98615 8.19945 8.22022 8.241 7.96676 8.02493 7.98615 8.06648 8.19945 8.10111 8.241 8.13712 8.02493 8.17867 8.19945 7.98615 8.19945 8.00554 7.92798 8.19945 8.13712 7.98615 7.98615 8.01385 8.19945 8.07895 8.00554 7.94737 8.07895 7.96676 7.98615 7.90859 8.16343 8.13712 12 7.96676 7.96676 7.98615 8.11634 8.08033 8.03324 8.03324 7.90859 8.02078 8.03047 8.1579 8.03047 7.97784 7.99723 7.83103 8.0651 7.92798 8.17451 8.00554 7.94737 7.98615 7.99584 8.02493 7.96676 12.5 12.5 8.00831 7.98615 7.98061 8.13573 8.14404 7.94737 8.02493 8.11496 8.17867 8.15928 8.00554 8.12188 8.00831 8.00693 8.13019 7.98615 7.98615 8.22022 8.02493 8.00554 7.98615 8.19945 8.17313 8.02493 8.19945 8.19945 8.19945 7.96676 7.97922 8.10803 8.22022 8.02493 8.00693 8.19945 
8.19945 8.241 8.00554 8.17867 8.241 12.5 12.5 12.5 12.5 12.5 12.5 8.12881 8.1482 8.0554 7.96676 8.02493 8.19945 8.09834 8.241 8.19945 8.07618 7.94737 8.19945 8.05817 8.02493 8.02493 7.98892 8.22022 8.22022 8.22022 8.00554 8.241 7.98615 8.0651 7.98615 8.19945 12.5 8.19945 12.5 8.241 7.98615 8.241 8.02493 7.98615 7.98615 8.17867 8.19945 8.17867 8.241 7.95429 8.241 8.0097 8.02216 7.94737 7.98061 7.98615 8.01662 8.241 8.03463 8.00554 8.09972 8.05402 7.98615 7.96676 7.98615 7.92798 7.98615 7.94737 8.22022 8.15235 8.07756 8.00554 8.06787 8.00554 8.1579 8.13712 8.22022 8.05402 8.00554 7.92798 8.06094 7.96676 8.03047 8.00554 8.17729 8.13712 8.01662 8.13712 8.17867 8.19945 8.11496 8.22022 8.18144 7.92798 8.19945 8.02493 8.11496 7.96676 8.22022 7.98615 7.94737 8.13573 8.241 8.19945 8.241 7.98615 8.04294 8.17867 8.241 
8.07341 7.98615 8.16343 8.1482 8.1856 8.22022 12.5 12.5 12.5 12.5 12.5 8.16205 8.04571 8.00554 8.19945 8.02493 8.16759 8.22022 8.22022 8.17867 8.0097 8.241 8.241 8.19945 7.96676 8.241 8.02493 8.19945 8.00554 8.06925 8.02493 8.02493 7.98615 8.17867 8.06648 7.96814 7.98615 7.98615 8.00554 8.00554 8.241 8.06094 8.16897 8.22022 8.17313 7.96676 7.98615 8.01108 8.07341 8.241 8.07756 8.16897 8.22022 8.22022 7.98061 7.96676 8.00554 7.98615 7.98615 8.14127 8.14404 8.15374 8.00554 8.02493 8.00831 8.09695 7.98615 7.98615 8.02493 8.02493 8.22022 7.98615 8.19945 8.01385 8.12465 7.92798 8.241 7.98615 8.19945 8.22022 8.13712 8.00554 8.19945 8.19945 8.19806 8.13712 8.10388 8.11357 8.08033 8.22022 8.07202 8.05402 7.98615 8.1579 8.05402 8.03463 8.16343 8.03186 8 8.241 7.92798 7.90859 8.22022 8.241 8.17867 8.13712 8.241 8.19945 8.22022 
8.02493 8.08172 7.94737 7.98615 8.19945 8.13712 8.00554 12.5 12.5 12.5 8.11634 8.02493 8.13573 8.19945 8.241 7.92798 8.241 8.00554 7.96676 7.98615 7.98615 8.02493 8.0831 7.98615 7.98615 7.98615 7.98615 8.22022 8.11219 7.98615 8.241 7.98615 7.98615 8.14404 8.16482 7.98615 8.15374 8.19945 8.00554 7.96676 8.10111 7.98615 8.241 8.12604 8.06233 8.02493 8.00554 8.07756 8.1579 8.01108 8.10665 8.19945 8.00554 8.241 8.03878 8.241 7.98615 7.96676 8.1108 7.98615 8.17867 8.03186 8.02493 8.241 7.96676 8.02493 8.19945 7.98615 8.02493 8.02493 8.19945 7.96676 7.98615 8.14543 8.04432 8.02493 8.19945 8.16482 8.04571 8.22022 8.13296 8.22022 8.08587 8.19945 8.19945 8.241 8.22022 8.1856 8.19945 8.00554 8.00554 7.98615 8.02493 8.19945 7.98615 8.02493 7.98615 7.92798 8.00554 8.02493 7.94737 8.19945 12.5 8.00554 7.92798 8.19945 8.04986 8.19945 8 
8.1579 7.96676 8.05402 7.97645 8.16621 7.99723 7.9723 8.06648 12.5 8.22022 8 7.94737 8.00554 7.90859 7.96676 7.96676 7.96676 8.22022 7.90859 8.02493 7.95706 8.241 8.04709 7.96676 8.12188 7.90859 7.98615 8.13573 7.98615 8.10526 7.98615 8.06925 7.94737 8.04709 7.90859 8.09695 8.03878 12.5 8.19945 8.22022 8.19945 7.98615 8.02493 7.96676 8.0277 8.15235 8.06787 8.09418 7.98615 7.99584 7.98615 7.98615 7.98615 8.10803 7.97091 8.241 8.22022 7.98615 7.98615 8.02355 8.19945 7.96676 8.22576 8.22022 8.00554 7.98615 7.98615 7.98615 8.241 7.98615 8.241 7.98615 8.02493 8.02493 8.19945 8.19945 7.98615 8.04432 8.02493 8.00554 8.00554 8.22022 8.09695 7.98615 8.241 8.19945 8.241 8.12188 8.02493 8.00554 8.00554 8.22022 8.00554 8.02493 8.16759 8.18283 8.14958 8.19945 8.07064 8.1579 8.20499 8.00554 7.98615 8.14681 8.19806 8.17867 8.241 8.00831 8.06925 
8.241 7.98615 8.1759 8.06648 8.19945 8.13158 8.241 7.98615 8.19945 7.98615 7.92798 8.01939 7.94737 8.19945 8.00554 8.06925 8.19945 7.98199 7.99307 8.04017 7.94737 8.01385 7.90859 8.00554 7.92798 7.98338 8.02493 7.90859 8.00554 7.85042 8.00554 7.90859 7.94737 7.93075 7.92798 8.03047 12.5 7.96676 7.96953 8.00554 8.05402 7.98615 7.90859 8.14266 8.0651 8.1759 8.15651 7.94737 8.00554 8.09557 8.00554 7.93075 8.19945 8.15097 8.15097 8.02493 7.9723 8.01385 7.90859 8.02493 7.96676 8.22022 8.00554 8.1579 8.0374 7.90859 8.22022 7.98476 8.22022 8.07341 8.07756 8.241 7.92798 8.01385 8.17867 8.19945 8.241 7.92798 8.00554 7.98615 8.00554 8.02493 7.9723 7.99861 8.19945 8.01524 8.10942 8.19945 8.00554 8.13989 8.19945 8.11634 8.241 8.22022 7.98615 7.98615 7.98615 7.97784 8.03463 8.00554 8.01108 8.16482 7.98615 8.22022 8.20083 8.03878 8.02909 8.17867 8.02493 
8.19945 8.22022 8.1579 7.98615 7.98615 8.00554 8.16066 7.98615 8.241 8.22022 8.14681 8.07618 8.19945 7.96676 8.02493 7.98615 8.17867 8.19945 8.02493 8.02493 7.98615 8.00831 7.98615 8.19945 7.98615 7.94737 8.02493 7.96676 8.02493 7.98615 7.98615 10 7.94737 8.00554 8.13712 8.15235 7.92798 7.98615 8.1579 8.00554 7.98615 7.98615 8.00554 8.13712 8.00277 8.11634 8.00554 8.1579 8.03463 7.98615 8.17867 8.21745 8.13712 8.1108 7.85734 8.00554 7.98338 8.22022 7.96676 7.90859 8.16343 7.86011 8.11634 8.11634 8.00554 7.94737 7.92798 8.00554 8.05402 8.00554 7.90859 7.98615 8 8.02216 8.19945 7.85042 8.00554 8.13712 8.13712 8.00554 8.05402 8.07064 8.05817 7.90859 8.00554 8.13712 7.94737 8.00554 8.04017 8.22022 8.241 8.05402 7.96676 8.22022 7.94737 7.96676 7.98615 8.03047 8.1579 8.22715 8.00554 8.0374 8.13296 8.07479 8.22022 8.1385 7.98615 8.00554 8.22022 
7.98615 8.09141 8.241 7.96676 8.00554 8.22022 7.96676 7.99584 8.02493 8.00554 8.19806 7.96676 8.00554 8.02493 8.00554 8.01662 8.02078 7.98615 8.02493 8.00554 8.05263 7.97507 8.00554 7.96676 7.98615 8.07064 8.04709 8.02493 7.98615 8.00554 8.00554 8.02493 7.98615 8.00554 8.04294 7.98615 12.5 7.98615 8.22022 8.02493 12 8.02493 8.00554 7.98615 7.98615 8.17867 8.19945 8.00554 8.02493 8.17867 8.02493 8.22022 8.12188 8.19945 8.02909 8.07341 7.96676 8.13435 7.96676 8.02493 7.98615 8.19945 7.98615 8.00554 8.02493 7.90859 8.02493 7.98615 7.96676 7.98615 8.1579 8.00554 7.94737 8.22022 7.96676 7.98753 8.22022 7.95014 8.241 7.98615 7.92798 8.19945 7.94737 8.22022 8.00554 7.92798 8.22299 8.1759 7.95429 8.19945 7.99446 7.9903 8.14543 8.1579 8.11634 8.17867 8.22022 7.85042 8.13712 8.02493 7.98753 8.13296 12.5 7.98615 8.03601 7.8892 8 8.22022 8.02493 
7.98615 7.96814 8.17867 8.04848 8.00138 8.13296 8.1579 8.02632 8.22022 8.241 8.07202 7.98615 8.02493 8.00554 8.00554 8.02493 7.98615 7.98615 8.02493 8.03463 8.00554 7.98615 10 8.241 7.98615 8.01939 7.94737 8.00554 7.98615 8.13019 8.02493 10 7.98615 7.96676 8.02493 8.02493 8.02493 7.9903 8.19945 8.04432 8.241 8.241 8.22022 8.19945 7.98615 8.08726 8.17867 8.12188 8.00693 8.241 8.22022 8.02493 8.21468 7.96676 7.98615 7.96676 8.06925 8.22022 8.03601 7.98615 8.00554 7.98615 8.17867 8.00554 8.10249 8.26177 8.241 7.98615 8.22022 8.03047 8.02493 8.19945 7.98615 8.02493 8.00554 8.00554 7.98615 7.98615 8.03463 8.00554 8.00554 7.98615 7.98615 8.06925 8.00554 7.98615 8.22022 8.00554 8.00554 7.98615 8.00554 8.04986 7.98615 8.19945 8.241 7.98615 8.19945 7.96676 7.98753 7.98615 8.02493 7.96676 7.98615 8.22022 8.07341 8.19945 8.1205 7.98615 8.18975 
12.5 7.90859 8.16759 8.21053 8.13712 8.11634 8.09972 8.13712 8.00554 8.00554 8.12188 8.02493 8.1579 7.98615 8.04432 7.95983 7.98615 7.94737 8.00554 8.05125 7.99861 8.04432 12 8.04432 7.98615 7.98615 7.98615 7.98061 8.09557 7.96676 8.16759 7.82825 7.98753 7.98615 8.03463 8.16897 7.98615 7.98615 8.22022 8.22022 8.1579 8.00554 8.00554 8.0554 8.23407 8.16897 7.98615 8.241 8.22022 7.96676 8.04571 8.241 8.06648 8.00693 7.98615 7.98615 8.02493 7.98615 8.00831 7.98615 8.02493 8.02493 8.00554 8.05402 7.98615 8.19945 8.19945 8.04432 8.04432 8.00554 8.12465 8.05263 8.08172 8.02493 8.03463 8.01662 7.9723 8.00554 8.241 8.02493 8.00554 8.00554 7.98615 8.241 8.1579 8.241 8.22853 8.241 8.02493 8.07202 8.0374 7.98615 8.17867 8.241 8.06233 8.09695 8.01939 8.11773 8.02493 8.07064 8.19252 7.98615 8.00554 8.0277 8.10111 8.02493 8.02493 8.04848 7.96676 
12.5 12.5 8.13712 8.00554 8.08172 7.93075 7.98615 7.98615 8.13712 8.1108 7.85042 7.96676 8.13712 7.8892 8.00554 7.90859 7.96814 7.99861 7.90859 7.98615 7.85042 8.00554 8.0097 7.96676 8.02493 7.94737 8.00554 7.95429 8.02493 8.09834 7.98615 8.00554 7.98615 7.98892 7.92798 8.07618 8.13712 8.00554 8.13712 7.98615 7.98615 8.19945 8.00554 7.92798 8.02493 8.10942 8.22022 8.12604 8.05679 8.0651 8.19945 8.22022 7.9723 8.05817 7.94737 8.12742 7.98615 7.96676 7.98615 7.98615 8.00554 7.92936 8.02493 8.17867 7.98615 7.98615 7.98892 8.23823 8.01385 8.03324 8.02493 7.98615 7.98615 7.97784 8.10111 8.00554 8.07756 8.05125 7.98615 8.02493 7.98615 7.98615 8.19945 8.15374 8.241 8.19945 8.22022 8.02493 8.00554 8.17867 8.241 7.98615 8.00554 8.02493 8.19945 8.00554 8.00554 8.05125 8.00554 8.17867 8.02493 7.99861 7.98615 8.02493 8.06371 7.98615 7.98615 7.98892 8.241 
12.5 8.22022 7.98615 7.98615 7.98615 8.22022 8.241 8.1579 8.241 7.98615 7.98615 8.00554 7.96676 7.96676 8.17867 7.98199 7.98615 7.92798 8.00554 7.98615 7.94737 8.00554 7.86981 8.00554 7.92798 7.99861 7.94737 7.92798 8.02493 7.90859 8.00554 8.03324 7.98615 7.90859 7.94737 7.95152 7.92798 8.00554 7.92798 8.241 7.83241 8.19945 7.90859 8.07202 8 7.99446 7.96676 8.08449 8.00554 7.95291 8.19668 8.00416 7.96676 7.96676 7.94737 8.00554 8.09557 8.241 8.11634 8.17867 7.94737 7.92798 8.22022 8.11634 8.02493 7.8892 8.02493 7.94737 7.94737 8.00554 7.90859 8.03463 7.90859 8.1108 7.94737 7.94737 7.98615 8.13019 8.22022 8.241 8.13712 8.13296 8.13712 8.06925 8.00554 7.8892 7.98615 8.02493 7.85042 8.241 8.00554 8.13712 8.241 8.241 8.05402 7.97645 8.02493 7.92798 7.92798 8.22022 7.96676 8.05402 8.17867 8.19945 8.14543 7.85596 7.92798 8.17867 8.04848 
8.00554 8.19945 8.06233 8.15235 8.19945 8.22022 8.00554 8.22022 8.02493 8.00554 8.19945 8.05263 8.02493 8.02493 8.18283 8.02493 7.98615 7.98615 8.00554 8.02493 8.01662 8.241 12 7.98615 7.96676 8.19945 8.02493 7.92798 8.1579 8.16343 8.00554 7.94737 8.18421 8.19945 7.94737 8.02493 8.13712 8.09557 8.19945 8.06371 7.96676 7.98615 8.19945 8.13712 8.22022 7.90859 8.17867 7.96676 8.16343 7.98615 7.98615 8.241 7.90859 7.98615 7.92798 8.19945 7.96676 8.22022 8.14404 7.92798 8.00554 7.92798 7.98615 7.94737 8.00554 8.22022 8.05125 7.98615 8.01247 8.00554 7.94737 8.00554 8.02493 12.5 8.241 8.1579 7.98615 8.00554 7.90859 8.05679 8.19945 7.98615 7.98615 7.92798 8.02632 8.15928 7.92798 7.98615 7.98615 7.98615 8.19945 7.94737 7.98615 8.19945 8.19945 8.13712 8.06094 8.241 7.92798 7.98615 8.02493 7.96676 7.9903 8.19945 8.0277 8.0651 7.94737 8.17867 8.18283 
7.98615 8.17867 7.98615 8.17729 8.19945 7.98615 7.98615 8.00554 8.17867 8.02493 8.02493 8.12881 7.98615 8.22022 8.05125 8.00554 7.96676 8.02493 7.98615 8.02493 8.23961 8.00554 8.08172 7.96676 8.00554 7.98615 8.02493 8.241 7.98615 8.02493 8.22022 7.96676 8.22022 8.241 7.98615 8.19945 8.19945 8.08864 8.22022 8.22022 7.96676 8.20776 8.00554 8.09695 7.99446 8.00693 8.04571 8.13712 8.02493 8.17175 7.98615 8.13296 12.5 8.19945 7.9903 8.19945 7.96676 8.00554 8.19529 7.98615 7.98615 8.00831 8.00277 8.02493 8.00554 8.00554 7.98615 8.17867 8.22022 8.00554 7.94737 8.02493 7.98615 7.98615 7.98615 8.19945 8.00554 8.00554 8.00554 8.02632 7.96676 7.98615 8.13989 8.16343 8.05263 8.04155 8.10526 8.22022 8.00554 7.98615 7.98615 7.96676 7.98615 7.98615 8.02493 8.0651 8.22022 8.02493 8.13019 8.18283 8.22022 7.98615 8.241 8.22022 8.00554 8.15374 8.19945 8.241 8.06371 
8.19945 8.13712 7.96676 8.00554 7.90859 8.14127 8.19945 8.17867 7.96676 7.98615 7.92798 8.02493 8.00554 8.18975 8.02493 7.96676 8.02493 8.19945 8.00554 7.98615 7.98615 8.00554 8.241 8.19806 8.1579 8.02493 7.98615 8.07202 7.96676 8.11911 8.00554 8.02493 8.21884 8.22022 8.18698 7.98615 7.98615 8.08587 8.19945 8.00554 8.02493 12.5 8.02493 8.17175 8.19945 8.19945 8.10249 7.98615 8.02493 8.03047 8.03047 8.14543 8.16482 8.03047 8.02493 8.10388 8.22022 8.02493 8.10665 8.10388 8.19945 7.98615 7.99861 7.98615 8.02493 8.02493 7.98615 8.19945 8.241 12.5 12.5 8.241 8.00554 8.02493 7.98615 7.98615 8.1579 8.00416 8.02493 7.98615 8.21607 8.19945 8.17867 8.22022 8.22715 8.241 8.2133 8.22022 8.00554 8.04986 8.17867 8.02493 8.22022 8.19945 8.18283 8.19945 8.23684 8.04155 8.15651 8.09972 8.00554 8.22022 8.02493 8.19945 8.11911 7.98615 12.5 8.22022 8.19945 
8.02493 8.13712 8.14404 8.1579 8.05402 8.01247 8.241 7.86981 7.98615 7.99446 7.92798 8.02493 7.95291 8.00554 7.96676 8.17867 8.14266 7.90859 7.98615 8.04986 7.98615 7.98615 7.96676 8.02493 7.92798 8.03047 7.98615 7.92244 7.98615 8.07895 8.241 7.97645 8.241 8.17867 7.98615 8.19945 8.19945 8.19945 7.98615 8.19252 8.01524 8.241 8.11911 8.19945 8.12604 8.07064 8.19945 8.20914 8.02493 8.19945 8.00831 8.08726 12.5 8.19945 8.19945 8.19945 8.22022 8.06094 8.05956 7.98615 7.98615 7.98753 7.98615 8.19945 8.02493 7.98615 7.98615 7.98615 12.5 12.5 8.00554 7.98615 7.98615 8.01247 7.98615 7.96676 8.02493 8.17867 8.17867 8.07618 7.96676 7.98615 8.1205 8.1205 8.02493 8.08726 7.99307 8.02493 8.00554 7.96676 8.04432 7.92798 8.10249 8.00554 8.09418 8.13435 8.22022 8.00554 8.01524 8.10942 8.00554 7.93213 12.5 8.19945 8.1759 7.93075 7.9446 8.1579 8.07064 
8.0651 8.19529 7.98615 8.19945 8.04294 8.19945 8.23823 7.96676 7.96676 7.96676 8.1579 7.98615 7.94737 7.96676 8.2133 7.90859 8.2133 7.92798 7.96676 8.02493 7.85042 7.97784 7.8892 10 7.93213 10 8.241 8.01385 8.00554 7.8892 8.00554 7.92798 8.14681 8.18421 7.94737 8.00554 8.11634 8.19945 7.94737 8.00554 8.04848 7.98615 8.06094 7.94737 8.18283 8.11634 8.00554 7.97922 12.5 12.5 8.10388 8.02493 7.90859 8.19945 12 8.02493 7.94737 7.98615 8.00554 7.94737 7.98615 7.90859 8.00554 8.1579 8.00554 7.98615 7.94737 8.19945 8.1579 12.5 12.5 7.97507 8.00554 7.92798 8.00554 7.94737 7.94737 8.00554 7.85042 8.22022 8.03601 8.08033 8.02493 7.90859 8.03878 8.00554 7.85042 8.02493 8.00554 7.85042 7.98615 7.96676 7.94321 8.00554 8.16759 7.97507 8.16621 8.19806 8 7.94737 8.04709 7.97922 7.92798 8.07895 8.22022 8.00554 7.93767 7.94737 8.17867 
7.98615 8.00554 8.1205 8.19945 8.22022 7.98615 7.98615 8.02493 8.00554 8.01801 8.19945 7.98615 8.22022 8.02493 7.98615 7.98615 7.98615 7.94737 8.02493 8.00554 7.96676 7.84488 7.96676 8.00554 7.92798 7.98615 7.95429 8.06787 8.00554 7.92798 8.00554 8.01801 7.98615 8.1579 8.09972 7.98615 7.96676 8.241 7.90859 8.06094 7.83103 8.22022 7.92798 8.02493 8.12742 7.95845 8.14681 8.07479 8.0374 7.92521 8.2036 8.13712 12.5 8.17867 7.96676 8.22022 7.86981 8.00554 7.94737 8.02493 7.96676 7.94737 8.00554 8.04571 8.02493 7.92798 8.00554 8.19945 7.90859 8.00554 7.90859 8.22022 7.96676 8.15374 7.98615 8.0928 8.23823 8.18421 8.09557 8.19945 7.92798 8.03324 8.22022 7.90859 7.98615 8.07479 7.95152 8.02493 8.19945 8.19945 8.02493 8.20499 7.96676 8.241 8.18975 8.00554 8.12881 8.19945 8.22022 7.98615 8.04571 8.00554 8.05263 8.22022 8.19945 8.15651 8.15097 8 8.02493 
8.11357 8.17451 8.19945 8.22022 8.02632 8.21468 8.15651 8.00554 7.98615 8.02493 8.11219 7.96676 8.22022 8.00554 7.98615 8.00554 8.01662 8.16897 8.02493 8.00554 8.21053 8.18698 8.02493 7.98615 7.98615 7.98615 8.19114 8.07618 8.02493 7.98615 8.23684 8.01801 7.98615 8.19945 8.19945 8.02493 7.96676 8.02493 7.98615 7.98615 8.17867 7.96676 7.99307 12.5 12.5 8.19945 8.17867 12.5 8.19945 8.03186 7.98615 7.98615 8.01939 8.241 8.22022 8.19945 7.96676 7.96676 8.13019 7.98615 8.13989 7.96814 8.19945 7.98615 7.98615 7.98615 8.00554 8.05679 8.22022 7.98615 7.98615 8.0374 8.00554 8.00554 7.98615 8.18144 8.14266 8.00554 8.03601 8.0097 8.09141 8.02493 8.02493 8.19945 8.21607 8.0277 8.11773 8.01385 8.08172 8.17867 8.19945 8.00554 8.22022 8.22022 8.11496 8.13435 7.98615 8.00554 8.02493 8.12604 8.00554 8.02493 7.96676 8.241 8.12604 8.1108 8.22299 8.22022 8.00554 
7.9626 8.00554 8.13296 7.96814 7.9903 8.241 8.0097 8.19945 8.02493 8.09557 7.98615 8.00554 8.00554 7.94737 8.00554 8.00554 8.00554 8.02078 7.96676 8.00554 8.00554 8.241 8.02493 7.98615 8.02493 8.02493 8.19945 8.00554 8.02493 8.241 8.00554 8.00554 7.96676 8.00554 8.00554 8.02493 8.00554 8.241 8.19945 7.98615 8.19945 7.96676 8.00554 8.00554 8.12465 8.1385 8.19945 8.00554 8.17867 8.02493 7.98615 8.00554 8.01385 8.02493 8.00831 8.00554 8.22022 7.96676 7.98615 8.02493 8.02493 8.00554 8.17867 8.04571 7.98061 7.99723 8.241 8.22022 7.98615 8.09418 8.241 8.19945 8.0277 7.98615 8.09003 8.00554 8.00554 8.02493 7.98615 8.02493 7.98615 8.02493 7.98753 7.98753 8.17867 8.06233 8.1579 7.98615 8.241 8.14681 8.00554 8.02493 7.98615 8.241 8.02909 8.17867 7.98615 8.02493 7.96676 8.19945 8.02493 7.98615 8.13712 8.1579 8.0374 8.02493 8.13712 8.05402 8.13712 
7.98615 7.94737 8.14266 7.94737 8.11634 12.5 8.00554 7.86704 8.00554 7.93213 7.94737 8.00554 7.92798 8.22022 8.19945 7.94737 8.02493 7.96676 8.00416 7.98615 7.98615 8.2313 7.96676 8.02493 7.98615 7.98615 7.98615 7.98615 8.02493 8.00554 8.22022 8.00554 7.98615 7.98615 8.00554 7.98615 8.00554 8.19945 8.02493 8.06925 8.00554 8.05679 8.19945 8.14127 8.22022 8.11219 8.00554 8.19806 7.98892 8.0831 8.00554 7.98615 8.22022 8.17867 8.01662 7.98615 8.22022 8.00554 8.12742 8.00554 7.98615 8.02493 8.04709 8.02493 8.22022 7.98615 8.00554 8.22022 8.22022 7.98615 7.98615 8.22022 8.16759 8.00554 7.98892 7.98615 8.09003 8.02493 7.96676 7.98615 8.07341 7.98615 8.1759 8.19945 7.98615 8.02493 8.22022 8.02632 8.241 8.1579 8.02632 8.00554 7.94737 8.19945 8.04571 8.13712 7.85042 8.00554 8.1579 7.85042 8.19945 8.00554 7.92798 8.11634 8.00554 7.98615 7.98615 12.5 8.13712 
7.94737 7.99446 8.14404 8.11357 8.19945 12.5 8.11219 7.98615 8.22022 7.92798 7.98615 7.92798 7.92798 8.00554 8.06233 8.00554 8.1579 7.98199 8.00554 7.85042 8.0651 7.94737 7.92798 8.00554 7.92798 7.98615 8.11634 8.02493 8.19391 7.98615 8.00554 7.92798 7.98615 7.91136 8.02493 8.19945 7.98615 8.22022 7.98615 8.01108 7.92798 8.2133 8.07618 8.02632 8.19945 7.98615 8.13158 8.13712 8.19945 7.95152 8.00554 7.9903 8.07202 7.98615 8.19945 8.00554 8.13712 8.22022 8.19945 8.22022 8.13573 7.98615 8.19945 8.13712 8.22022 7.98615 8.19945 8.241 7.92798 7.98615 8.15235 8.06094 8.13019 7.92798 7.98615 7.94737 8.19945 8.20222 8.01939 8.00554 8.09418 7.98615 8.22022 8.11634 8.09141 7.98615 7.98199 8.09003 8.241 7.86981 8.02493 8.02493 7.92798 8.22022 8.1205 8.11496 8.19945 8.18975 7.98615 8.19945 8.241 7.98615 12.5 8.22022 7.98615 8.19945 12.5 8.22022 8.02632 
8.16621 8.23684 8.241 8.19945 8.02493 8.1579 8.18421 8.00831 8.16759 8.02493 8.19945 8.1205 7.96676 8.10803 7.98615 7.98615 8.00554 7.92798 7.98615 7.98615 7.99584 8.00554 7.90859 8.09557 7.94737 7.98615 8.00554 7.96676 7.98615 12.5 8.00554 7.92798 8.00554 7.96676 7.92798 8.01524 7.8892 8.02493 7.8892 8.17867 7.96122 8.14266 8.17867 8.11634 8.00554 7.96537 8.12742 8.09141 8.13019 8.00693 7.91274 7.96676 7.8892 8.19945 7.91828 7.98615 7.96676 8.13712 8.03601 7.91136 8.07618 7.94737 8.02216 8.06233 7.99584 8.00554 8.09557 7.98615 7.98615 8.00554 8.00554 8.06648 7.98753 7.94737 8.10526 8.10388 7.92798 7.98615 8.15097 8.00554 8.22022 7.92798 8.06648 8.19945 8.05679 8.02493 8.00138 8.20776 8.04294 8.00554 8.02493 8.00554 8.19945 8.02493 7.98615 8.241 7.98615 8.22022 8.19945 8.11911 8.10111 7.96676 8.19806 12.5 8.02493 8.19945 8.01662 8.19945 8.17867 
8.16343 8.02493 8.19945 8.02493 7.98615 12.5 8.02493 8.22022 8.241 8.00554 8.02493 8.19945 8.02493 8.00554 7.98615 7.98615 8.00554 8.00554 8.00554 8.04986 8.00554 7.96676 8.10942 7.98615 8.00554 8.00554 7.98615 8.00554 7.98615 7.98615 7.98615 7.96676 8.02493 7.94737 8.02493 8.19945 7.98615 8.15374 7.98615 8.12188 8.13712 8.20776 12.5 8.22022 7.98615 7.96676 8.00554 7.94737 8.0374 7.96676 8.04432 7.98615 8.17451 8.19945 8.00554 8.04432 7.94737 8.0374 8.07341 8.12742 8.03324 7.99861 8.241 7.98615 8.18837 8.04571 7.98615 8.01524 7.98476 8.00554 8.1856 7.98615 7.98615 8.23407 8.05679 8.00554 7.98615 8.19945 8.22022 8.22022 8.22022 8.00554 8.00554 8.22022 8.241 7.98615 8.16759 8.15097 8.00554 8.12327 8.00554 8.00554 8.04571 8.02909 7.98615 7.98615 7.98615 8.1579 8.19945 7.92798 8.10111 8.241 8.1579 8.13712 7.94737 8.00554 12.5 8.13712 8.09557 
7.90859 7.98615 8.16759 7.90859 8.05817 12.5 8.04155 8.11357 8.12881 8.09972 8.19945 7.98615 8.00554 7.98615 8.241 8.02493 8.00554 8.02493 7.98615 8.02493 8.06233 8.00554 8.00554 7.96676 7.98615 8.00554 8.02493 8.02493 8.00554 8.00554 8.05125 7.98615 8.00554 8.241 8.04432 8.18006 8.00554 8.01247 8.22022 8.1205 8.0554 8.02493 8.22022 8.0554 8.02632 7.98615 8.00554 8.03324 8.22022 8.15651 8.241 8.19945 8.2036 7.96676 8.22022 8.00554 8.02493 8.17451 7.98615 8.00554 8.1205 7.98615 8.22022 8.02493 8.02493 8.19945 7.98615 8.17867 8.22022 8.02493 8.06787 8.00554 8.17867 7.98615 8.18144 8.00554 8.00554 7.98615 8.22022 8.241 8.22022 8.13712 8.06094 8.19945 8.15374 7.98615 8.19945 7.97922 8.02493 8.17867 8.19945 8.02493 8.08033 8.1108 8.19945 7.98615 7.95983 7.92798 8.19945 8.03186 8.07341 8.22022 8.22022 8.1579 8.11634 8.19945 8.02493 8.19945 8.17867 
8.06371 8.10803 8.1579 8.08587 8.09834 12.5 7.93767 8.00554 8.13712 7.95291 8.06787 7.92798 8.02493 7.98615 7.94737 8.02493 8.22022 8.19945 7.98615 7.96676 8.22022 8.10942 7.98615 7.98615 8.00554 8.00554 8.241 8.19945 8.00554 7.98615 7.98615 8.02493 8.03463 7.94737 8.00554 7.98615 8.06648 8.02493 8.02493 8.10803 8.21191 8.19945 8.17313 8.18975 8.02493 8.02493 7.99861 8.13296 8.1579 8.22022 8.19945 8.00554 8.01385 8.19945 8.14681 8.22022 8.19945 8.01524 7.96676 7.98615 8.19945 8.09972 8.02493 8.00554 8.00554 8.04294 12.5 8.19945 8.241 8.18837 8.00554 8.13989 8.22022 8.14958 8.04432 7.98615 8.17313 7.98615 8.1579 8.26177 7.96676 7.94737 8.14404 8.13712 8.0831 8.02909 7.90859 7.94737 8.22022 8.09557 7.98615 8.22022 7.93213 7.92798 8.22022 8.241 7.92798 8.17867 8.19945 8.1579 8.05263 8.21607 8.241 7.98615 8.16621 8.22022 7.96676 8.19945 12.5 
7.94737 7.98615 8.16621 8.14404 8.241 12.5 7.96676 8.1579 8.19945 7.94598 8.13158 7.98615 7.98615 7.98615 7.90859 8.14266 8.15651 7.8892 8.02493 7.90859 7.96676 8.02493 8.1579 7.98615 7.92798 7.98615 12 7.98615 8.02493 7.92798 7.98615 8.1579 8.00554 7.98615 7.98615 8.10249 7.92798 8.02493 7.97507 8.241 8.19945 7.96676 7.98615 8.04294 8.08726 7.9349 8.241 8.10111 8.20637 8.00554 8.19945 8.02493 7.92798 8.00554 7.94737 8.0651 8.00554 8.1579 8.00554 7.94321 8.09695 8.1579 7.98615 8.00554 7.92798 8.00554 8.05402 8.22022 8.13712 7.97507 8.0097 7.85042 8.00554 8.05956 8.13712 8.13989 7.99446 8.19252 8.13712 8.13712 8.00554 8.1579 8.19945 8.22022 8.09972 8.17867 8.01385 7.92798 8.241 7.96676 7.90859 8.05125 8.19945 8.00554 8.19945 8.00554 8.03878 8.241 7.96676 8.13158 8.16066 8.22022 8.19945 8.22022 7.98615 8.17867 8.22853 8.17867 8.17867 
8.241 8.17867 7.98615 8.09834 8.19945 12.5 8.15512 7.98615 7.98615 8.01247 8.14127 7.98615 8.02493 7.98615 8.00554 8.02493 7.96676 8.00554 7.98615 8.13712 8.1205 7.92798 7.98615 8.00554 7.92798 8.04848 7.85042 8.00554 8.0097 8.00554 7.92798 8.13712 8.00554 7.85042 8.07895 7.90859 7.98615 8.0097 7.92798 8.12188 7.9169 8.09834 8.04709 8.11219 7.90859 7.92798 8.17313 7.94875 8.2036 7.85042 8.00554 7.94183 7.92798 8.00831 7.96953 8.16759 7.86565 7.96676 8.16343 8.05956 8.241 8.03878 8.13296 8.13712 8.12188 7.98615 8.1579 8.13019 7.94598 8.20637 7.98615 7.98615 8.15512 7.92798 8.18283 8.17729 8.19945 8.02493 8.17867 8.19945 7.98615 8.02493 8.00554 8.00554 7.98615 8.14127 8.00831 8.00554 7.98615 8.00554 7.98615 8.17867 8.02493 7.98615 8.00554 8.17867 8.22022 8.22022 8.03047 8.12604 8.19945 8.04155 8.19945 7.92798 7.99169 8.19114 7.98615 12.5 8.13712 
7.92798 8.06925 7.96676 7.9903 8.2036 8.19945 8.21191 8.19945 7.99307 8.22022 8.19945 7.98615 8.02493 8.00554 7.98615 8.00554 8.02493 8.05263 7.98615 8.02493 7.98615 7.98615 8.1579 8.17036 7.98615 8.02493 8.19945 7.98615 7.98615 8.19945 8.02493 8.13712 7.98615 8.11773 7.98615 8.18975 8.08864 8.14404 7.92936 8.16205 8.19945 8.15512 7.96676 8.19945 8.22022 7.96953 8.241 8.00831 8.19945 7.98615 8.00554 8.03186 7.97784 8.241 8.0097 8.19945 7.98615 8.17867 8.18006 8.00554 8.00554 8.00554 7.98615 7.98615 8.00554 8.00554 8.00554 7.98615 8.22022 8.22022 8.13573 7.98615 8.00554 8.02493 7.98615 7.98615 8.04709 8.00554 8.241 8.19945 8.19945 7.98615 8.04432 7.98615 8.22022 8.16205 8.02216 8.02493 8.19945 7.98615 8.17867 7.94737 8.20914 7.92798 8.19945 8.02493 8.241 7.9446 8.09557 8.17036 8.05402 8.17867 12.5 12.5 7.98615 7.99446 8.2036 8.15374 8.17867 
7.98615 8.16897 7.85042 8.00277 8.17867 8.22022 8.1579 8.03463 8.13712 8.19945 7.96676 8.19945 8.05679 7.98615 8.00554 8.00554 8.02493 7.98615 8.02493 8.02493 8.00554 8.00554 8.00554 8.02493 8.02493 8.00554 7.98615 8.241 7.98615 8.00554 8.241 8.00554 7.96676 8.22022 8.15374 8.13019 8.00554 8.241 8.23546 8.18698 8.00554 7.98615 8.00554 7.98615 8.04432 8.18975 8.21745 8.22022 7.99307 8.00554 7.96676 8.00554 8.02493 8.0554 7.98615 8.02493 8.06233 8.22022 8.241 8.11634 8.00554 8.00554 7.96676 8.00554 8.22022 8.02493 8.19945 7.94737 8.22022 7.98615 8.22715 8.02493 8.01385 8.241 8.12465 7.99169 8.22022 8.03601 7.98615 8.05956 8.00554 8.13712 7.98615 8.00554 8.13712 8.00554 8.1205 7.92936 8.11773 8.02493 7.85042 7.94737 8.03878 7.85042 8.241 7.98615 8.02909 7.94875 8.18975 8.19945 7.96676 7.98615 8.22022 8.241 7.98615 8.13573 8.17867 7.98615 8.22022 
8.04986 8.02493 7.98615 12.5 8.16482 8.22022 8.05402 7.96676 7.98615 8.09834 8.22022 7.85042 8.06233 8.22022 8.07064 8.00554 7.98615 7.98615 8.02493 7.92798 8.02493 7.96676 8.17867 8.22022 7.94737 8.02493 7.98615 7.98615 8.19945 8.22022 8.00554 7.98615 7.98615 8.02493 7.98615 7.98615 8.04017 8.16621 7.96676 8.22022 8.02493 7.99584 8.00554 8.00554 8.18837 8.09418 8.00554 8.241 7.98615 8.16482 12.5 12.5 8.17451 8.19945 8.19945 7.98615 8.15374 8.22022 8.15235 8.19945 8.241 8.00554 7.97922 8.16205 7.98615 8.02493 8.02078 8.19945 8.17867 8.19945 8.19945 7.92798 7.98615 8.00554 8.1579 8.22438 8.05402 7.98615 7.98615 8.05402 8.22022 7.92798 7.90859 8.00554 8.01524 7.98753 8.19945 8.05263 7.98615 8.241 8.06787 7.98615 8.20499 7.98615 8.00554 8.19945 8.00554 8.09141 8.241 7.96676 7.98615 8.19806 8.19945 12.5 8.04432 7.96676 7.98615 8.241 7.98615 
8.03047 8.02493 8.1205 7.98615 8.15374 8.19945 8.03878 8.241 7.95014 8.06925 8.19945 8.01385 8.18144 7.97091 7.96676 8.02493 7.85042 8.00554 7.92798 7.92798 7.94737 7.85042 8.00554 8.04017 7.96676 7.98615 7.94737 7.98615 7.90997 8.02493 7.98615 8.04155 8.22022 7.95429 8.19945 8.1579 8.10526 7.98615 7.98615 8 8.17867 8.02493 7.96537 8.1108 7.99861 8.19945 8.04571 7.92798 7.98615 7.98892 8.22022 7.92798 7.96676 8.22022 7.92798 8.19945 8.04709 8.14958 8.17867 8.13712 8.22022 7.85042 8.00554 7.92798 8.19945 8.00554 8.11634 8.02493 7.90859 8.1205 7.98615 7.94737 8.19945 8.10942 8.22022 8.00554 7.92798 8.00554 8.0277 8.19945 8.241 8.17867 7.98615 8.19945 7.96676 7.98615 8.00554 8.20914 8.00554 8.00554 8.02493 8.02493 8.00554 8.00554 8.241 8.19945 7.98615 8.241 8.17451 7.98615 7.92798 8.241 8.19945 8.19945 7.90859 7.96676 8.19806 8.00554 8.22022 
8.0928 7.98892 8.02632 8.00554 8.22022 8.22022 8.19252 8.02493 7.98615 8.02493 8.22022 8.0651 7.98615 7.98615 8.13158 8.22022 8.00554 7.98615 12 7.92798 8.23546 8.14404 8.00554 8.00554 7.92798 8.00554 7.92798 8.02493 8.00554 7.92798 8.00554 7.85042 8.00554 8.11634 8.00554 8.17867 7.94598 8.00554 7.95568 8.13158 7.8892 8.1579 7.98615 7.93767 8.0277 7.85042 8.00554 7.92798 7.98615 8.17867 7.94737 8.01801 7.8892 8.14543 8.08033 8.15512 8.00554 7.94737 7.98615 7.92798 8.00554 7.98615 7.98615 8.22022 7.94737 8.241 7.98615 8.07895 7.98615 7.96676 8.241 8.00554 7.98615 8.04848 8.2133 8.04986 8.241 8.241 7.98615 8.00554 8.00554 8.02493 7.98615 7.96676 8.02493 8.00554 7.96676 8.06648 8.04986 8.00554 8.13158 8.04017 8.26177 8.19945 7.9169 8.19945 8.15651 7.92798 8.10803 8.00554 8.13019 7.90859 8.22022 8.22853 8.0554 7.96676 8.19945 8.22022 8.22022 
7.98615 7.94737 7.94737 8.01247 8.02493 8.09834 7.98615 8.19945 8.04571 8.03186 8.10803 8.02493 8.00554 8.00554 8.02493 8.02493 7.98615 8.02493 8.18006 8.00554 8.00554 8.00554 7.98615 12 7.98615 7.98615 12 12 8.07202 8.04017 7.98615 7.98615 8.00693 8.00554 8.09557 7.96676 8.02493 8.05263 8.02493 8.07202 7.97091 8.02493 8.01939 8.02493 7.98615 12 8.07341 8.16621 8.02493 8.17867 7.9903 8.00554 8.06094 8.10388 8.00554 8.13019 8.03601 8.19945 8.19945 8.22022 8.22022 8.19945 8.00554 7.98615 8.02493 8.00554 8.00554 7.98615 8.06925 8.02493 8.00554 8.07202 7.96676 8.05402 8.241 7.98615 8.02493 8.00554 8.22022 8.19945 8.07064 8.00554 8.08172 8.241 8.1579 8.00554 7.98615 8.09557 7.98338 7.98615 8.11634 7.92798 8.22022 8.1579 8.1579 7.96676 8.02493 7.95152 8.17729 8.18421 8.02493 8.02493 12.5 8.17867 8.10526 7.98615 8.241 12.5 8.241 
8.00554 8.16759 7.90859 8.00554 12.5 8.05402 7.92798 8.00554 7.8518 7.98615 7.98615 7.92798 8.02493 7.98615 7.98615 8.02493 8.00554 7.98615 7.98615 8.00554 8.02493 8.02493 7.98615 8.02493 8.02493 7.96676 8.00554 12 8.02493 8.02493 8.19945 8.00554 8.02493 7.98615 8.00554 8.02493 8.02493 7.96676 8.02493 8.02493 7.98615 8.07202 8.02493 8.02493 8.02216 8.02493 7.96676 7.98615 8.02909 8.07618 8.02493 8.18698 8.10942 8.05125 8.00554 8.241 8.02493 8.08726 7.96676 8.07895 7.98615 8.19945 8.14404 8.19945 7.99307 8.00554 8.13296 8.03463 7.98615 7.99861 8.02493 7.98615 7.98615 8.00554 8.10942 8.241 7.92798 8.17175 8.16066 8.05402 8.08726 8.19945 7.85042 8.02493 7.98615 8.11219 8.19945 8.19945 7.92798 8.04155 8.18421 7.99169 8.08587 7.99861 8.22022 8.21884 8.17867 8.02493 8.00554 8.00554 7.98615 8.02909 12.5 12.5 8.02493 8.19945 7.90859 7.98615 8.22022 
7.96676 8.00554 8.10388 8.19945 12.5 12.5 8.02493 7.96676 7.98615 8.00554 7.92798 8.00554 7.98615 7.85042 7.98615 7.94737 7.90859 8.00554 7.86981 8.02493 7.96676 12 8.00554 7.90859 7.98615 7.98615 8.19945 8.02493 7.94737 12 7.98615 7.98615 7.98615 8.00554 8.02493 7.96676 8.00554 7.98615 7.98615 7.98615 7.96676 8.03463 7.96676 8.02493 7.98615 7.98615 7.98615 7.98615 8.17729 7.98476 8.00554 8.1385 8.16066 8.15512 7.95706 8.02493 8.17867 7.98615 8.08449 7.94737 8.22022 7.90859 8.00554 8.13296 8.10526 8.22022 7.90859 8.0831 8.11634 7.92798 8.10249 7.83103 8.00554 8.22022 7.94737 7.98615 7.92798 8.17175 7.96676 7.98615 8.06787 7.98615 7.98615 8.02493 8.0651 8.13712 8.19945 7.98615 8.07064 8.241 8.16759 8.19945 8.22022 8.02493 8.22022 7.96676 8.241 8.19945 8.1579 8.19945 8.14127 8.05402 12.5 8.19668 8.09695 7.95014 8.12742 8.12881 8.241 
12.5 7.98615 8.0831 8.19668 8.241 12.5 12.5 12.5 8.04017 8.17867 8.241 8.02493 8.02493 7.98615 7.96676 8.02493 7.92798 8.00554 7.98615 7.94737 8.00554 12 8.02493 7.98615 7.94737 7.98615 7.85042 8.00554 7.90859 7.92798 7.96676 7.86981 8.02493 7.85042 8.00554 7.92798 7.96676 8.00554 7.8518 8.14404 7.90859 8.02493 12 8.09695 8.00554 7.85042 8.00554 7.93213 8.1108 7.96676 7.90859 7.98615 7.86288 8.07756 7.92798 7.97922 8.00554 8.05402 8.09834 7.92798 8.01939 8.00554 7.99861 8.241 8.11634 8.00554 8.16066 8.05679 8.26177 7.92798 8.00554 7.96676 8.03324 8.04709 8.08172 8.09418 8.04155 7.98615 8.01385 8.1482 8.02493 7.98615 8.19945 8.02493 8.19945 8.00554 7.98615 8.17175 7.98615 7.98615 8.02493 8.13158 8.14404 7.98615 12.5 8.05402 7.98615 8.14404 8.00693 8.00277 7.99584 7.98892 8.17867 8.19945 8.19945 8.01662 12.5 12.5 12.5 
8.02493 7.95152 8.02493 7.98615 8.11634 12.5 7.96676 8.00554 7.98615 8.19945 7.94737 7.96676 8.02493 7.98615 7.96676 8.00554 8.1759 7.98615 8.00554 8.00554 7.98615 8.03047 8.02493 7.96676 8.02493 8.22022 8.19945 7.96676 7.95706 8.00554 7.92798 8.00554 7.98615 7.96676 8.04571 7.92798 8.00554 8.19945 8.11496 8.0277 12 7.98615 7.90859 8.00554 7.98615 7.98615 8.00554 8.13712 7.98615 7.92798 8.00693 8.10249 7.98615 8.00554 7.92798 8.02493 8.19945 8.14681 8.04571 8.20776 8.03047 8.07341 8.00693 8.02493 8.00554 8.19945 8.19945 7.99169 8.02493 8.22022 8.14681 8.00554 8.02493 8.02493 8.19945 8.08726 8.22022 8.07618 8.04848 8.19945 7.98615 7.98615 8.03186 8.02493 8.02355 8.13712 8.12881 7.97645 8.00416 8.07202 7.98615 7.83103 8.19945 8.241 8.1579 8.13989 8.17729 8.07618 8.1579 8.0097 8.00693 8.19945 8.22022 8.241 7.96676 8.22022 8.22022 8.22022 12.5 
8.241 7.90859 7.99446 8.00554 7.92798 12.5 8.14958 7.98615 7.92798 8.241 7.98615 7.98615 7.98615 7.98615 7.98615 8.00554 8.00554 7.98615 7.98615 8.02493 8.00554 8.00554 7.96676 7.98615 8.02493 8.00554 8.04986 7.96676 8.02493 7.98615 7.98615 7.98615 8.02493 8.00554 8.00554 7.98615 7.98615 8.13712 8.14266 8.02493 7.98615 7.98753 8.0097 8.17867 8.09003 8.00554 8.02493 8.00554 8.19945 8.0651 8.09418 8.00554 8.1579 8.03324 8.08449 7.98615 7.98615 8.18144 8.09834 8.06648 8.06648 8.02493 8.00554 8.07064 8.04571 8.0554 8.21191 8.00138 7.98615 8.00554 8.02216 8.00554 8.02493 8.00554 8.10388 8.08864 7.98615 7.94737 8.18837 8.00138 7.98615 7.98615 8.13019 12 8.02493 7.92798 7.92798 8.00554 8.1579 7.94737 8.2133 8.19945 7.94737 8.02493 7.98615 8.01939 8.00831 8.19945 8.16343 8.05679 8.00554 8.00554 8.08033 8.18283 8.13435 8.02493 8.19945 8.13712 7.99723 
7.98615 12.5 8.22022 8.05817 8.13712 8.17867 8.21745 7.85042 8.00831 7.96953 8.06371 8.06648 7.98615 7.98615 8.02493 7.99723 7.98615 7.98615 8.02493 8.03878 8.04571 8.00554 7.98615 12 7.98615 7.98615 8.00554 12 7.98615 7.97507 8.01801 8.00554 8.04017 8.02493 8.00554 8.22022 7.96676 12 8.02493 8.02493 8.00554 7.95014 8.00554 7.98615 8.00554 8.02493 7.98615 8.07895 7.96676 8.22022 8.00693 8.18283 8.17729 7.96676 8.02493 8.22022 8.00554 8.02493 8.01662 8.00554 7.96676 8.00554 8.19945 8.02493 8.02493 7.98615 8.02493 8.19945 8.19945 8.00554 8.02493 8.17867 7.96676 8.19945 7.92798 7.98615 7.94737 8.15512 7.98615 7.85042 8.00554 8.02493 7.8892 12.5 8.241 7.96399 8.08172 8.07479 7.94737 7.98615 12.5 12.5 12.5 12.5 8.03186 8.11634 7.98615 12.5 7.97922 8.02355 8.12604 7.95845 8.06648 12.5 12.5 12.5 12.5 7.93213 8.19945 
12.5 12.5 8.22022 12.5 12.5 8.19945 8.02493 7.98615 8.00554 8.00554 7.90859 12.5 12.5 12.5 8.00554 8.17867 7.92798 8.05125 8.01801 8.00554 8.17867 7.98615 8.02493 7.96676 7.98615 8.07618 7.98615 8.19945 7.96676 7.98615 8.00554 8.02493 7.98615 8.00554 8.00554 8.02493 7.98615 8.02493 8.241 8.00554 7.98615 7.98615 8.00554 8.13573 7.98615 8.02493 8.00416 8.08587 7.98615 8.19945 8 8.22022 7.98615 8.00554 8.00554 7.98615 8.00554 7.96676 8.02493 7.96676 7.98615 8.19945 7.94737 8.22022 7.92798 8.19806 8.19945 8.13712 8.241 7.85042 7.96676 7.98615 8.10388 8.19945 7.94737 12.5 8.08587 12.5 8.02493 7.98615 12.5 12.5 12.5 12.5 12.5 12.5 12.5 12.5 12.5 12.5 12.5 12.5 12.5 12.5 12.5 12.5 12.5 12.5 12.5 12.5 12.5 12.5 12.5 12.5 12.5 12.5 12.5 12.5 12.5 
8.13435 8.00554 8.15235 12.5 8.241 7.94737 12.5 12.5 8.02493 7.98892 12.5 12.5 12.5 8.19945 7.98615 8.1579 12.5 8.19945 8.19945 8.241 12.5 12.5 8.19945 12.5 12.5 12.5 12.5 12.5 12.5 12.5 12.5 12.5 12.5 12.5 12.5 12.5 8.02493 7.85042 8.00554 12.5 12.5 12.5 12.5 12.5 12.5 12.5 12.5 12.5 12.5 12.5 12.5 12.5 12.5 12.5 12.5 12.5 12.5 12.5 12.5 12.5 12.5 12.5 12.5 12.5 12.5 12.5 12.5 12.5 12.5 12.5 12.5 12.5 12.5 12.5 12.5 12.5 12.5 12.5 12.5 12.5 12.5 12.5 12.5 12.5 12.5 12.5 12.5 12.5 12.5 12.5 12.5 12.5 12.5 12.5 12.5 12.5 12.5 12.5 12.5 12.5 12.5 12.5 12.5 12.5 12.5 12.5 12.5 12.5 12.5 
12.5 12.5 12.5 12.5 12.5 12.5 12.5 12.5 12.5 12.5 12.5 12.5 12.5 12.5 12.5 12.5 12.5 12.5 12.5 12.5 12.5 12.5 12.5 12.5 12.5 12.5 12.5 12.5 12.5 12.5 12.5 12.5 12.5 12.5 12.5 12.5 12.5 12.5 12.5 12.5 12.5 12.5 12.5 12.5 12.5 12.5 8.1579 12.5 12.5 12.5 12.5 12.5 12.5 12.5 12.5 12.5 12.5 12.5 12.5 12.5 12.5 8.19945 12.5 8.241 12.5 8.17867 12.5 12.5 12.5 12.5 12.5 12.5 12.5 12.5 12.5 12.5 12.5 12.5 12.5 12.5 12.5 12.5 12.5 12.5 12.5 12.5 12.5 12.5 12.5 12.5 12.5 12.5 12.5 12.5 12.5 12.5 12.5 12.5 12.5 8.11634 12.5 12.5 12.5 12.5 12.5 8.19945 12.5 12.5 12.5 
12.5 12.5 12.5 12.5 12.5 12.5 12.5 12.5 12.5 12.5 12.5 12.5 12.5 12.5 12.5 12.5 12.5 12.5 8.13712 12.5 8.05402 8.22022 12.5 12.5 12.5 12.5 12.5 12.5 12.5 12.5 12.5 12.5 12.5 12.5 12.5 12.5 12.5 12.5 12.5 8.19945 12.5 12.5 12.5 8.21053 8.22022 8.19945 8.05402 12.5 12.5 8.13712 8.08726 7.96676 8.17036 8.08864 7.96814 8.00554 8.1579 7.96676 8.00554 7.85042 8.22022 7.90859 7.96676 8.02493 7.9349 8.22022 7.94737 8.00554 8.22022 7.97368 8.19945 8.19945 7.98615 8.04432 8.00554 8.05125 8.19391 7.96676 7.98615 8.241 8.09141 8.00554 8.11357 8.22022 8.22022 8.00554 8.13158 8.2313 7.98615 8.19945 8.22022 8.04986 7.90859 8.00554 8.22022 8.13712 7.98199 8.19945 8.22022 8.13712 8.03324 8.19945 12.5 12.5 7.98615 12.5 12.5 8.19945 12.5 
8.10942 8.14266 8.05679 8.13712 7.96676 8.17867 12.5 12 8.0554 7.98615 7.98615 7.96676 8.241 8.19945 8.02493 8.19945 8.15651 8.17867 8.13712 7.98615 7.94737 7.96676 8.10388 8.03324 8.22022 8.13712 7.92798 8.17867 8.07479 8.19945 8.11634 7.96676 8.22022 8.13712 8.22022 8.13712 8.19945 8.17867 8.17867 8.02493 7.93213 8.20637 7.98615 8.00554 8.00554 8.13712 7.98615 8.13296 8.00554 7.99861 7.99307 8.22022 7.86981 8.04155 7.93767 8.13712 8.09003 8.05402 8.19945 7.92798 7.96676 8.02493 7.90859 7.98615 8.19945 7.98615 8.00554 7.90859 8.241 7.98615 7.96676 8.00554 7.98615 8.19945 8.00554 8.00554 7.98615 8.11357 8.00554 8.09003 8.00554 8.22022 7.98615 8.02632 7.98615 8.00831 7.90859 7.98615 8.0928 7.8892 8.1579 8.22022 8.15374 7.94737 8.22022 8.19945 8.02078 8.09418 7.96676 8.20776 8.10249 8.01939 8.19945 8.241 8.1759 8.16482 8.26177 8.19945 8.19945 
8.19945 8.19945 7.96676 7.98615 8.02493 8.19945 8.02493 8.02493 8.00554 8.00554 8.17867 8.02493 8.00554 7.98615 7.98615 7.98615 8.02493 8.00554 7.98615 8.00554 7.92798 8.00554 7.98615 8.04017 7.98615 7.92798 7.98615 7.94737 8.22022 8.19529 8.11634 8.02493 8 8.22022 7.98615 7.90859 8.00554 8.05402 8.00554 7.92798 7.90859 7.96676 7.83103 8.241 8.13712 8.00554 7.95291 7.92798 8.22853 8.05402 7.98615 8.17867 8.13712 8.22022 8.07479 8.19945 8.03878 8.19945 8.241 7.92798 8.02493 7.98615 8.17313 8.22022 8.18975 8.19945 8.19945 8.22022 8.19945 8.1579 8.22022 8.241 8.19945 8.22022 8.00554 8.241 8.03878 7.96676 7.98615 8.18975 8.17867 8.04155 7.96676 7.94737 8.20776 8.1579 7.8892 7.98615 8.00554 8.04017 8.19945 7.98615 8.17867 8.19945 8.22022 8.241 7.98615 8.07202 8.06371 8.05402 8.22022 8.11496 8.17867 8.22022 8.03324 8.07064 12.5 8.19945 7.96676 
7.90859 8.0928 8.17867 7.97368 8.00554 8.00554 7.98615 7.98615 7.98615 8.00554 7.98615 7.98615 8.19945 8.00554 8.241 8.241 7.96676 8.241 8.02493 8.22022 12.5 8.19945 8.19945 8.19945 8.22022 8.22022 8.19945 8.19945 8.19945 8.241 8.17867 8.19945 7.98615 8.19945 8.02493 7.96676 8.02493 7.96676 7.96676 7.99169 8.0097 8.02493 8.06648 8.04848 7.96676 7.94737 7.98615 7.94737 8.19945 8.19252 8.17867 8.03324 8.21607 8.04709 8.08449 8.00138 8.16205 8.16205 8.19945 8.26177 8.02493 8.0097 7.98615 7.96676 8.02493 8.02493 8.19945 7.98615 8.17729 8.02493 8.02493 8.00554 8.00554 8.02355 8.17867 7.99169 8.02493 7.96676 7.92798 8.00554 7.92798 7.90859 8.02493 8.05402 8.00554 8.00554 8.20914 7.98615 8.10249 8.241 8.241 8.17867 8.241 7.98615 8.19945 8.241 8.09695 7.98615 8.00554 8.05956 7.97368 8.17867 12.5 8.241 8.19945 8.19945 12.5 12.5 12.5 
